ply
format ascii 1.0
element vertex 564
property float x
property float y
property float z
property uchar diffuse_red
property uchar diffuse_green
property uchar diffuse_blue
end_header
9076.558674553688 -13926.035063905272 75.55274066580334 46 44 43
9314.21079693774 -13936.504249106696 80.90904601384302 46 38 36
8979.023492982682 -13844.922175013005 66.21046094271928 54 51 45
9283.569526750287 -13961.634436153548 73.1161228799322 54 51 49
9180.230757201454 -13421.962746906009 82.04621269662167 128 127 132
9140.971872850878 -13497.993216805255 83.77127216928515 100 96 92
9039.73791579882 -13584.276691802383 73.03564917146532 103 106 111
9322.220402429486 -13948.985120421656 80.56932449521904 45 45 47
9267.187513847615 -13857.826845912756 76.06537698961074 51 47 45
9158.429111644251 -13482.603211949967 83.05129362569645 106 112 119
8901.614066497183 -13969.08584316819 73.97403777839452 63 60 54
9210.813740409554 -13708.28868847213 78.9094423948156 83 86 84
9094.599959753501 -13550.734307246259 75.9787543536632 70 74 77
9158.053638865906 -13480.748266465795 86.95191470648743 54 52 54
9287.576216231831 -13912.719126367625 78.49259442265966 64 54 44
9294.794014801317 -13918.505458148336 78.37840673333096 141 139 138
9197.283752492673 -13664.456023069693 71.63288183305205 43 41 44
9172.665305202236 -13670.96124324322 69.32733237814995 47 43 40
9157.771027718563 -13477.905642996104 84.97334990618296 32 31 34
9194.829673684486 -13967.482880440224 85.89403249149989 124 125 130
9061.94571366826 -13910.167311541943 77.93951910047599 109 112 116
9292.380408918849 -13858.523332726027 73.06258232364566 71 61 48
9110.69343314297 -14010.594848133846 77.10051360917845 124 131 137
8917.934956859526 -13928.24885360732 75.8232237370684 141 149 159
9177.666660215087 -13541.385369741007 70.32193093217293 70 68 69
9072.279761786482 -13811.449669373578 83.35631681197859 102 85 69
8555.608412466434 -13620.998435338723 32.12772496326132 120 121 120
9122.035546969622 -13831.73336127039 67.81268398789268 90 75 58
9171.097630911701 -13414.729403236744 76.34091127089033 85 85 85
9192.287777835048 -13955.365488107896 82.46365515989291 66 64 64
9024.332171092927 -13913.9267223141 76.52195414565041 68 54 45
9107.938987650987 -13726.1101547133 68.01834526557242 43 40 41
9292.144803732148 -13876.91758665613 75.34424225630974 140 138 137
9226.530080602564 -13906.368782238003 78.5539174300583 123 127 130
8491.013094753951 -14033.436958809269 52.505640253217514 137 136 134
8917.934956859526 -13928.24885360732 75.8232237370684 141 149 159
9610.726880090075 -13459.44763033616 102.36304964083006 167 169 173
9158.204014443576 -13525.175180525965 72.14478288918023 18 21 24
9205.147304755308 -13571.200698268447 79.0132720946717 120 119 116
9092.858356953677 -13828.583233615587 72.32243654008442 60 51 44
9197.156030099553 -13652.700367352169 70.42731890637374 27 29 29
9047.273787665585 -14070.938420925731 75.69278275333738 165 167 169
9185.775737721862 -13949.890083780763 89.92087855639437 58 49 43
9167.175005502339 -13937.417732549167 84.31225071668828 64 55 50
9152.60401119157 -13509.107413270183 83.49781130901998 88 93 96
9051.960321015384 -13933.261133778886 81.46306916573612 54 50 44
9160.83337473562 -13894.460365570745 72.86859996474828 166 164 163
9238.20351696244 -13993.08963808851 76.11443350179799 70 61 53
8859.854103930566 -13768.518019646135 64.54267498120673 126 129 132
9148.848176411408 -13504.637454647049 79.47743003546528 40 39 41
9021.858630347422 -13963.164453988986 81.29745295092022 44 40 43
9187.652426970028 -13562.10358524514 68.05952331031028 65 61 59
9161.374301093432 -13438.396937585581 75.70611694214219 46 45 49
9310.948070075168 -13958.632874456534 81.54825144838019 22 22 28
9283.827080733383 -13864.347300679541 74.3808574698116 135 135 135
9183.04436035715 -13598.13454950968 86.94161339328713 54 48 40
8987.545982397614 -13950.554463061768 76.5405842802882 159 160 169
9220.130154154005 -13600.02630231426 83.01522965372125 89 74 60
9296.870542756784 -13757.158438611845 68.56260015200583 41 43 43
8900.738808388123 -13921.078098928338 73.89574502663977 66 60 52
8976.75529074708 -13751.391069166155 63.77861559313005 66 62 43
9186.029548771648 -13570.008065808803 78.68447079953043 139 142 147
9248.715666511884 -13925.144296943155 92.22286351978946 69 58 45
9176.019873608757 -13456.869443159361 78.18791898333077 44 37 28
9194.915432043672 -14007.620896960763 77.93875247524684 58 53 47
9172.312934495176 -13582.14720027102 80.03252342537247 59 63 69
8942.687608147924 -13894.223140100901 74.12712106892516 54 49 41
9211.074354969785 -13583.302011438713 83.6751806332158 143 147 152
9162.701048013734 -13521.379619730871 77.42100196164266 30 31 36
9100.457584268428 -13896.04561096862 74.79180866708576 62 53 44
9112.664520425533 -13807.76899292977 70.53995801638598 128 132 134
8953.84571522815 -13936.627819348048 67.3480553021759 80 71 66
9232.848927200359 -13922.63249533972 82.57609581884277 163 163 165
9182.830546027515 -13577.25150497576 75.79851271861062 119 123 123
9219.510961588203 -13704.353342743982 81.91585506809062 40 34 34
9159.681204557703 -13784.130742278656 80.67110991839687 133 136 139
9232.27431468266 -14005.938888181448 77.39912127719676 65 57 54
9198.285153585211 -13828.13236016643 73.73443778161989 27 30 29
9171.299443608053 -13675.714384094254 72.80957929177885 85 76 72
9072.291400872962 -13578.470044017882 83.21536877038811 27 29 29
9138.107300007025 -13902.339560112183 75.4757777198115 135 134 134
9205.811524473183 -13658.257719712381 75.23830947997713 130 132 137
9178.726541363036 -13577.164232733938 87.93698910245618 39 38 40
9057.984573445849 -13783.509004748912 68.63761989067805 133 138 141
9120.32421282447 -13578.262301159932 83.66061767702638 24 25 26
9100.035540041114 -13973.436302211441 78.68934714984285 156 157 162
8892.072324356672 -13363.335670387889 59.30873038511717 127 125 125
9206.329802612783 -13538.899166297411 68.54662054342529 173 174 173
8921.20691797063 -13522.422185683316 69.13249724951288 114 115 115
9179.305763686258 -13957.264520364139 86.4877343015885 158 159 161
9263.02375371995 -13871.029325499947 76.59493206966386 62 54 52
8976.75529074708 -13751.391069166155 63.778615593130375 66 62 43
9007.338074104073 -13588.345042714585 78.02026478262911 67 70 72
9174.1802095142 -13955.477861847125 78.79980367027545 66 64 64
9141.847454901927 -13841.172583517962 72.41768514161383 140 137 137
9300.256209341096 -13913.091351426841 74.48907198581139 74 67 58
8926.009453537326 -13838.319714552175 69.60361528067293 61 55 49
9211.786303567149 -13580.122579061 78.1594168420255 29 27 30
8992.637828974192 -13868.203935394433 74.188186281923 56 53 44
9176.527507716797 -13910.861874811604 78.82030037409025 46 41 34
9193.566935581102 -13481.689753774539 67.27810830280458 166 169 173
9198.620267937888 -13952.035790125497 80.0262310668214 62 57 50
8907.26166021458 -13950.326203351735 76.92584370373903 165 167 171
9210.224403214914 -14081.02948308975 79.19080181041454 68 58 52
9090.975997649737 -13959.505263811567 74.48704893494333 137 136 137
9162.681793122045 -13465.40200545897 80.24542066974936 118 117 122
9286.261790371971 -13941.356896063256 79.63619803346315 57 46 40
9224.595190796002 -13878.19548683567 68.58391023559697 76 69 66
9017.637074099033 -13957.620037091168 78.20899492787586 109 110 112
9168.291181529808 -13489.955189734112 78.95313388579285 138 142 147
9156.708722765585 -13485.927016334754 65.62602334524432 43 44 40
9165.3636540517 -13517.6715762805 74.0775140893058 19 19 26
9221.27395558587 -13914.867498756952 75.26731796454337 51 50 50
9169.403680117111 -14005.959348835217 79.91022973670529 175 176 178
8969.555483988306 -13728.574161196331 76.86485403170762 133 134 138
9033.009254391693 -13794.060424310079 73.18180924549331 71 62 51
9212.161941365193 -13854.265908779478 75.00445812863693 121 119 118
9081.228976227832 -13556.921720220955 82.67444402998099 86 88 88
9340.260444672927 -13914.025366904092 77.88979157557928 66 61 59
8393.238842566123 -14003.30097232223 48.0579191641445 63 57 55
9278.067948662898 -13831.070378648561 73.13581344915222 124 124 123
9161.285053197658 -13507.27120700127 71.55054194069969 39 35 32
9031.216748413206 -13923.97308454858 75.30463802782526 177 175 178
9148.09951946415 -13851.61595246387 75.89683646572786 120 125 128
9278.55846795872 -13934.503013746247 75.56875458003555 143 139 138
9088.969049456595 -13849.691979552053 73.94497280587103 79 70 60
9279.967201502266 -13852.691367442123 73.36546484855737 144 142 139
8920.975739235011 -13974.482324903833 79.98684826708974 150 150 156
9193.772111355245 -13573.948590151525 91.0972552186801 44 44 45
9326.989737469205 -13905.851511520734 71.05429606943981 74 70 68
9196.335995833995 -13438.732144961008 73.80003124948222 34 36 37
9098.630687916926 -13586.434260207869 80.57403651630075 39 40 41
9047.034448336643 -13836.82219123741 71.3414963544252 161 161 165
9191.88706829354 -13563.567930935844 77.92451700693451 44 45 46
9213.643810330515 -13856.492671625136 79.41491887605093 160 161 162
9160.825932934089 -13525.960127210252 84.05574254697402 91 98 102
9273.44393751399 -13717.978403043062 69.7228825948769 41 40 43
9199.694767403931 -13658.606375212401 77.47842399940735 35 38 42
9183.436170354784 -13743.21666346108 67.38231699679324 48 43 39
8921.182510628949 -13999.95715809913 72.95240993907436 160 164 168
9150.99890567946 -13830.007541868128 69.85574388310047 51 45 40
9201.956524751866 -13650.083626517286 75.6809216796327 127 131 134
9089.108749262283 -13572.506609397842 93.60794480192536 32 30 32
9295.802641699394 -13892.076912949773 72.84329342650818 63 59 55
9191.7556463237 -13739.958402816386 64.11620734368505 81 74 67
9015.779180053612 -13701.79228457348 75.48124875237417 70 33 30
9141.420673730958 -13729.553944757074 67.74162768332963 92 88 84
9066.132219150682 -13889.285955945283 73.744611082 123 122 127
9174.024931837388 -13926.678057855188 81.00223220545789 59 55 42
9167.608195288933 -13818.51356342569 72.71297611879163 145 145 144
9383.727932211059 -13791.165712818289 91.436640583782 83 68 59
8633.292681377985 -14024.436594121713 65.24771581328294 112 109 107
9278.067948662898 -13831.070378648561 73.13581344915222 124 124 123
8892.667931762799 -13920.167888161352 72.27870105852888 87 79 68
8520.603866540801 -14084.49369528293 56.03350302074562 145 143 144
9622.122713881217 -13453.978531716137 109.72572737864765 177 180 188
9242.782025998029 -13966.30923448313 87.36246032793413 145 154 159
9337.888179775482 -13899.477959113567 71.40860203913995 166 169 171
9201.095116777695 -13938.444830369886 82.47960582924398 121 124 130
9166.319695890497 -13781.801947570048 76.47463369075126 48 45 46
9046.38516411353 -13899.699303041521 76.4000986638521 58 50 39
9159.27021745903 -13484.567941944853 80.33846306291807 32 32 35
9138.355644868083 -13500.676578081457 80.67083646671304 45 44 42
9093.041258250512 -13591.60781462158 94.85458861963565 120 124 128
9186.669041794192 -13548.624686302583 75.26888412276159 141 138 136
9212.565319433475 -13721.757754413022 70.93388854404776 78 73 69
9017.130750554448 -13580.673938078922 78.93051480241077 91 93 95
9139.951132674176 -13771.423698782666 67.1801073678752 158 160 162
9191.247038246935 -13571.382030633024 94.51971965019672 93 96 96
9248.715666511884 -13925.144296943155 92.22286351978946 69 58 45
9190.760060610228 -13586.751493343614 75.31332146538237 24 22 25
9071.534426923234 -13941.597386033063 80.7211522724851 150 151 156
9283.734443776228 -13877.965119692542 76.18248818637153 62 52 43
9198.390185757991 -14084.331195100045 79.93751618290977 100 90 83
9024.332171092916 -13913.9267223141 76.52195414564792 68 54 45
9182.317155132576 -13594.587922847732 84.44338890693241 95 97 96
9153.120735569837 -13601.389688105963 85.15565857707274 98 94 89
9026.52978792423 -13623.921425898627 71.10336936236351 30 29 29
9060.347345458085 -13553.16245626812 77.54293206485183 86 88 88
9087.69379350453 -13794.77252529681 78.15386617445974 141 140 141
9234.798270747036 -13566.522105103151 66.59015732365738 160 160 160
9019.124489853342 -13875.425257112118 74.02858857360278 162 162 167
9200.765113600384 -13568.503676566646 79.6608345441114 29 25 23
9280.303931142347 -13864.170643020372 73.56413288824996 135 135 135
9211.376317097374 -14043.112395590513 75.0531609888276 66 61 58
9162.864762385025 -13491.353552806253 70.58183236387538 72 72 72
9057.03286412587 -14080.30236652342 79.48406573620575 71 61 56
9087.631428017985 -13935.527095318472 76.92714836477856 164 163 165
9222.71601488073 -13895.366592188147 77.6301765188843 127 129 132
9052.884126689216 -13656.767483511505 67.42085437767048 27 27 28
9233.715776985166 -13915.45328528028 78.00412580302964 41 40 40
8986.921061976058 -13731.42240218477 64.1432290639594 31 34 36
9145.0674828558 -13914.815755428734 76.73181682378758 175 178 181
9156.888437680384 -13511.740691674777 76.49151062322055 28 31 34
9235.531538300369 -13816.785440516374 70.33944789831168 56 47 39
9166.414572037847 -13433.173812449008 77.62150525960595 25 22 24
9160.696849215581 -13529.460596668181 80.52225154458151 42 43 45
9156.829975907998 -13505.13738968208 75.73205611863813 64 64 66
8832.71515716752 -13757.914476159216 58.06193826492362 42 42 42
9277.90672709904 -13923.67560562751 78.03030597064213 67 58 48
9366.26692960978 -13474.735114195319 85.1322448070703 191 192 196
9142.320774968919 -13909.01065612058 78.13238633240145 40 37 37
8936.849162726969 -13935.399939981824 72.61964114250631 36 35 35
9096.202380603218 -13553.600433977748 78.30058017631129 47 49 51
9331.367428141188 -13912.315983737992 71.3768484173326 174 177 181
9510.633223284836 -13605.228299457505 95.33999348754826 127 127 121
9223.662301373191 -13958.057243075082 79.1003800939042 56 48 36
9166.641148296321 -13551.856420757389 76.441154252096 56 50 45
9193.772111355245 -13573.948590151525 91.09725521868 44 44 45
9272.471450720788 -13837.212071378763 72.93994989733538 56 52 41
9145.067482855795 -13914.815755428732 76.73181682378674 175 178 181
9207.04852094622 -13792.963350539623 64.23805340946748 147 142 140
8968.559874362272 -13728.492223885805 67.77523618755632 129 132 136
9084.272382430374 -13583.073497463709 82.27798886520166 26 30 35
9065.904285133265 -13974.90432985256 83.5110078685595 50 45 39
9282.408177174022 -13859.485081945135 67.67143537184447 60 52 47
9261.665123084354 -13833.925966641658 76.02166093992867 63 55 51
9156.264993880526 -13506.813298262548 72.92079429079708 16 18 26
9089.35965565362 -13547.585237374398 76.9669092587576 43 45 51
9210.820389359269 -13593.856725850741 79.82319719712153 28 27 27
9294.891698321137 -13837.984547533013 71.83751691978378 51 46 42
9059.781550997082 -13405.974694273047 79.23457340430103 34 36 38
8373.167758112046 -13959.971440247322 34.4916162983779 138 137 137
9301.900681612266 -13721.027852312274 82.64183618735719 91 82 74
9220.130154049279 -13600.02630233182 83.0152301192839 89 74 60
9177.233185084902 -13426.309488330824 78.73934970094129 45 44 39
9166.049112450448 -13512.151152241868 75.06771359598896 20 21 25
9160.178719727339 -13487.125278188998 83.34111335990589 144 147 147
9155.933813464773 -13406.787295197517 73.40346957786052 73 77 81
9167.175005502339 -13937.417732549167 84.31225071668828 64 55 50
9082.748833387775 -13899.990193968959 77.53054454486377 163 164 171
9143.085544565063 -13591.831060778686 70.0427405470683 34 32 33
9151.576817589197 -13495.4027334453 67.40824223585278 120 118 119
9004.718951303175 -13897.427452636703 72.85482630340195 60 58 48
9167.501500840108 -13360.108767816693 76.66897533220462 61 59 61
9168.817566835587 -13898.308970074731 77.57154988391672 38 40 44
8971.21471573199 -13894.00392819141 73.47345545433056 57 51 40
9024.431588577374 -13588.346920315946 69.25115527814579 98 102 104
9164.433879579277 -13816.302834195829 67.33419103273621 124 123 121
9058.07854554173 -13802.392851147652 66.06666783924105 19 21 27
9181.904615648118 -13560.77223219888 78.93905915746042 136 141 146
9019.715912719628 -13905.613243559706 76.03497605312126 151 151 153
9029.754153863227 -13591.306045996393 75.55761279889536 58 58 63
9202.553933821917 -13961.68677830755 81.80450029242066 166 166 166
9254.50325185362 -14003.52263461638 77.29569216285552 141 137 136
8879.96857568991 -13781.377187531458 71.23450858174422 108 116 118
9202.431421221603 -13654.449055322486 77.51094540388733 33 34 36
9143.191748566114 -13755.509159367386 66.78212167519031 38 38 34
9106.351163214576 -13907.074292364767 74.61718563551426 119 122 128
9064.11767097241 -13871.225520800717 71.21333873468838 57 52 45
9058.07854464627 -13802.39285152596 66.06666971409292 19 21 27
9153.157052217315 -13435.63749722493 72.72412785500642 47 47 52
9011.363934031913 -13895.213598448632 78.01681242317686 64 56 46
9009.961650062896 -13712.440310899501 67.74152846254351 61 16 21
9047.590163860275 -13814.703694756043 71.27501851273658 164 164 165
9193.543130367012 -13550.472034165541 71.23455692614145 58 51 48
9010.774775657834 -13478.999893042106 74.50582140274477 42 40 42
8339.000135802184 -13954.12564005967 42.702206864353805 76 63 57
9173.658825369286 -13931.079020062656 81.78085199872793 144 147 154
9315.133299133744 -13789.003303169085 73.14252522774999 37 38 40
9213.222647983423 -13801.40818163566 67.95616608643856 62 53 46
9163.92465427375 -13463.585577568261 76.12694917895648 23 23 25
8968.627021187525 -13719.73298533001 66.10319481237912 128 130 135
9181.904615648118 -13560.77223219888 78.93905915746042 136 141 146
9224.160183667886 -13832.286546772124 75.1585371094622 122 127 132
9172.719711327078 -13487.1818411241 88.96652316773347 33 35 41
9202.372668172999 -13750.459706802041 71.51642678381945 63 62 60
9041.925175444452 -13599.03784854547 73.96098347986357 46 45 50
9105.830600960706 -13592.342625557723 84.47071489409191 37 38 41
9183.0180900754 -13910.955229519093 80.068927027568 46 41 34
9054.43582450912 -13808.966716481396 67.53790903689438 42 41 37
9270.581056049185 -13844.47466563332 72.49257960083513 62 53 44
9237.429893063083 -13949.63075559427 84.47874146170226 152 156 161
9116.63273038807 -14059.38221905676 79.84261681247433 120 119 125
9228.723436199678 -13700.642473918317 72.79533833239722 21 20 23
9160.825932934089 -13525.960127210252 84.05574254697402 91 98 102
9164.801757621224 -13490.377088648107 71.24629684739197 23 25 28
9265.284379115717 -13794.614062864366 71.0439523459175 63 58 52
9160.371755076787 -13523.138883706684 81.18239175233235 38 38 40
9100.030178885174 -13965.940208790891 80.65542674846583 41 42 41
9224.393125825864 -13696.256307782727 83.3368782563883 86 88 92
9004.718951303179 -13897.427452636703 72.85482630340276 60 58 48
9134.721239893743 -13343.740008663775 78.46453158832996 35 35 40
9021.298710003372 -13895.692799504566 80.98732623463921 64 56 46
9054.582837956386 -13653.936097520018 73.30321841236959 38 37 39
9344.440519360402 -13907.028040511545 70.2884393644422 177 179 182
9070.156180379228 -13805.047294736924 76.48569036081238 149 149 151
9156.813774375867 -13943.911917735622 79.39000766330602 126 131 136
9168.817566835589 -13898.308970074731 77.57154988391706 38 40 44
8961.363347209604 -13884.138391043809 75.02742609712566 153 154 158
8371.465362587609 -14093.441594961816 45.12377517208607 67 59 54
9186.68250220079 -13711.315698898727 78.35234187140264 71 76 78
9197.107472392847 -13573.976067128091 70.46111417842923 71 64 61
9018.794182393955 -13597.968887905965 76.15240385842672 91 94 96
9186.029548771648 -13570.008065808803 78.68447079953043 139 142 147
8331.456434282034 -13975.30007611887 44.88098560813386 70 57 49
9108.210840725398 -13958.409681503003 74.34997168958687 21 23 29
9205.275448188155 -13714.445683029211 75.29092677886882 25 28 30
9026.036632398886 -13599.082854343342 74.14927733366954 101 102 103
9276.490904557731 -13902.425578796347 76.05177487826465 64 52 46
8932.326312146233 -13903.597338891801 76.00551900302172 62 53 48
8339.000135802184 -13954.12564005967 42.702206864353805 76 63 57
9089.108749262283 -13572.506609397842 93.60794480192536 32 30 32
9198.748668389197 -13582.322331202378 91.99466269440502 39 39 39
9041.90660588712 -13958.999679982238 78.46915172240601 46 44 37
8972.286085704603 -13908.607558793508 75.92095902668612 128 128 132
9041.925175444452 -13599.03784854547 73.9609834798636 46 45 50
9160.397132101642 -13516.650681389716 77.76505427599236 34 38 42
9279.9912911807 -13791.085702123772 70.9026195647328 129 126 120
8990.79206975278 -13972.13295982338 77.29729593938588 165 163 160
9117.387405915984 -13954.692225084624 82.24040612318944 153 155 159
9185.383167620746 -13885.319549592276 80.89793652994666 64 57 52
9172.935719991196 -13429.319697311686 79.92897532853998 126 125 131
9163.655129725168 -13511.723995996916 82.83904779103453 32 36 38
8398.264627016828 -13981.323956859536 43.65598217670647 138 137 137
8969.960072791157 -13722.9758222519 72.04117581784227 133 134 139
8932.326312146235 -13903.597338891801 76.0055190030218 62 53 48
9045.132893482609 -13868.17047100971 71.74631932812652 75 72 68
9064.747787988326 -13837.943724864654 75.30961117342929 161 161 165
8885.09859190501 -14095.390909340564 73.89233017313627 78 67 62
9192.443799266941 -13933.121660670577 81.01774270247081 127 127 131
8972.286085704603 -13908.607558793508 75.92095902668612 128 128 132
8921.28988417133 -13917.837751862771 78.3848162592379 69 62 51
9148.31006650492 -13896.840692350204 78.68970564517706 116 120 127
8947.760319645653 -13922.336639455136 70.57219605944769 75 68 61
9165.060417647213 -13515.360466526694 82.05228048390038 110 112 117
9279.55351952453 -13892.152286675511 81.6227813150786 57 54 50
9175.379396699458 -13739.816961021694 49.300770382250796 68 59 56
9292.144803732148 -13876.91758665613 75.34424225630974 140 138 137
9079.61808639245 -13917.093254529904 76.30955665903194 165 163 164
9168.43987292593 -13752.279909160752 70.23234666247905 65 63 64
9240.463178167647 -13703.669474095375 75.30409217766801 17 18 21
8922.40197477927 -13918.328159826175 73.64544031312475 135 141 146
9199.104796309639 -13352.794753223008 80.83608730210354 38 35 32
9305.12235308168 -13823.333445502616 72.24135830941536 47 48 46
9182.722155002411 -13977.95900716141 78.57598651570765 108 104 111
9114.141777322908 -13545.328661400485 73.88604644886153 94 83 71
9019.12448985334 -13875.425257112118 74.02858857360242 162 162 167
9046.385164113533 -13899.699303041521 76.40009866385296 58 50 39
9279.10818157922 -13899.287178518105 74.57342157485682 146 145 144
9086.645613729566 -13588.159205850288 95.91274783000407 96 100 102
9140.184463841642 -13723.79030975648 67.94721877178272 97 92 88
9092.858356953677 -13828.583233615587 72.32243654008424 60 51 44
8934.695382043585 -13938.546141577737 75.73234931811358 130 135 141
8897.315974323772 -13910.30299892344 73.93066686596278 173 174 174
9138.355644868083 -13500.676578081457 80.67083646671304 45 44 42
8957.247798957507 -13851.195304048866 70.97903215730211 86 84 79
9304.952737529757 -13773.324344027511 71.63476996025456 27 31 32
9156.264993880526 -13506.813298262548 72.92079429079726 16 18 26
9204.465137369263 -13851.622551503859 74.8142512090494 104 110 112
8952.801880451787 -13870.176107355344 73.59390861814892 103 105 111
9087.631428017985 -13935.527095318472 76.9271483647787 164 163 165
9281.021920439376 -13958.471324407996 82.52148739496731 52 45 36
9057.984573445849 -13783.509004748912 68.63761989067795 133 138 141
9135.564044647968 -13536.67690327737 73.34931504233478 82 81 76
9326.79206903988 -13895.848665881274 74.20012069474788 67 66 63
9174.84120242399 -13505.680762765092 66.00005367254785 44 42 40
9250.004833631623 -13822.101232758532 72.96731034897641 83 75 67
9287.576216231831 -13912.719126367625 78.49259442265966 64 54 44
8965.210526428302 -14027.907984189593 73.87879044625052 155 151 149
9296.498723128861 -13734.030688349389 71.10703116151296 48 44 39
9167.175005502339 -13937.417732549167 84.3122507166883 64 55 50
9226.784689746362 -13839.217438389946 73.05849377747288 59 50 38
8879.281679537688 -13775.241106133428 65.37331340214692 41 47 50
9288.087874615241 -13820.777241640808 70.69963343413323 76 69 64
9170.526328390364 -13490.265514571754 79.32957514114835 138 142 147
9171.541640864692 -13492.909026912617 84.62249526580395 30 30 33
9225.1574534725 -13767.913332089473 72.3876815769915 72 71 71
9464.549260010052 -13793.369189615016 83.54591198910171 176 177 179
9148.84817641141 -13504.637454647049 79.47743003546576 40 39 41
9075.611125420937 -13925.90021137783 75.24030724363605 66 64 62
9281.421707156072 -13725.184421364751 68.38824787294611 33 37 36
9235.531538300373 -13816.785440516374 70.33944789831256 56 47 39
8874.994619648225 -14072.777064427257 72.41275738582279 120 120 126
9169.88437650342 -13516.077124157451 70.80007752771557 52 49 43
9279.10818157922 -13899.287178518105 74.57342157485682 146 145 144
9174.02493183739 -13926.678057855188 81.0022322054583 59 55 42
9236.90047383397 -13536.716808591807 67.59756316901436 129 130 125
9224.81575914527 -13588.57905496519 78.44717030164465 58 55 52
9187.744308178662 -13456.329682815083 77.27156883221964 76 69 66
9262.96671154961 -13908.860619336132 75.72620925211237 108 95 88
9163.429130130817 -13837.582664002275 71.94987944840864 51 44 38
8426.790945441153 -13993.142515541618 50.92341033231557 72 60 55
9226.074863480582 -13716.76474588504 73.76933533378428 81 74 67
9192.759245367532 -13565.561404730335 79.91696844962942 138 144 147
9282.395829095254 -13869.133195038228 76.18869861846997 71 60 54
9142.299680085363 -13767.966531449578 69.28871448207825 135 138 139
9671.204628063313 -13656.514152221844 97.5707200559971 160 164 164
8982.450975816466 -13879.72417758496 71.4810306565723 39 38 39
8920.849224239688 -13960.449361491615 83.05377181744956 47 45 42
9191.745384346897 -13657.5978973128 78.5029436349265 76 79 80
9070.156180379228 -13805.047294736924 76.48569036081238 149 149 151
9094.859775769526 -13541.895368285155 72.53592882248125 62 50 45
8961.363347209603 -13884.138391043809 75.02742609712509 153 154 158
9209.577983385183 -13968.914865891707 84.64670053764995 58 49 44
9016.148355534468 -13574.642726862547 76.47379577570943 35 31 32
9147.00763266972 -13525.419889385434 65.43043178775075 39 37 41
9066.29217127744 -13571.321729164149 75.37543535945129 21 23 23
9162.904896174015 -13519.69400689334 80.95833400798595 110 109 114
8832.715157167524 -13757.914476159216 58.061938264923995 42 42 42
9211.074354969785 -13583.302011438713 83.67518063321586 143 147 152
9152.604011191572 -13509.107413270183 83.49781130902036 88 93 96
9031.927939523328 -13891.903595887516 76.54609850487587 157 160 164
9181.05917517714 -13399.221241078722 84.01137493342544 23 21 25
9069.773600887982 -13910.139105134092 73.55730921690089 66 64 59
9226.35064818859 -13850.560850554744 76.55284259265983 138 138 137
9302.633726300857 -13926.745530361053 74.2905478431629 48 46 43
9221.50490029226 -13723.05414301463 72.82471017030187 78 73 69
9176.847786371669 -13576.263289420185 81.06194129058979 61 64 70
9176.65291599537 -13423.262838863393 74.23625435312357 33 33 34
9063.165117292476 -13967.282552841822 83.98451437357117 175 177 182
9594.79553684809 -13464.28473626889 93.66363755271598 176 177 180
9088.032819426111 -13917.256422593546 78.1963042674334 165 163 164
9047.03444833664 -13836.82219123741 71.34149635442482 161 161 165
10908.352823627398 -14175.742435651953 440.405836374043 255 0 0
10908.356504464544 -14175.52025783791 440.4083236284643 255 0 0
10908.36018530169 -14175.298080023867 440.4108108828856 255 0 0
10908.363866138836 -14175.075902209826 440.41329813730687 255 0 0
10908.367546975982 -14174.853724395784 440.41578539172815 255 0 0
10908.37122781313 -14174.63154658174 440.41827264614943 255 0 0
10908.374908650276 -14174.409368767698 440.4207599005708 255 0 0
10908.378589487422 -14174.187190953655 440.42324715499205 255 0 0
10908.382270324568 -14173.965013139612 440.42573440941334 255 0 0
10908.385951161714 -14173.742835325571 440.4282216638346 255 0 0
10908.352823627398 -14175.742435651953 440.405836374043 0 255 0
10908.398861432515 -14175.740764656122 440.18844169995396 0 255 0
10908.444899237633 -14175.73909366029 439.9710470258649 0 255 0
10908.49093704275 -14175.737422664459 439.7536523517758 0 255 0
10908.536974847868 -14175.735751668628 439.53625767768676 0 255 0
10908.583012652985 -14175.734080672797 439.3188630035977 0 255 0
10908.629050458101 -14175.732409676964 439.10146832950863 0 255 0
10908.675088263219 -14175.730738681134 438.88407365541957 0 255 0
10908.721126068336 -14175.729067685303 438.6666789813305 0 255 0
10908.767163873454 -14175.727396689472 438.4492843072414 0 255 0
10908.352823627398 -14175.742435651953 440.405836374043 0 0 255
10908.135453693903 -14175.738319492386 440.3598354469596 0 0 255
10907.918083760409 -14175.734203332819 440.3138345198762 0 0 255
10907.700713826915 -14175.730087173251 440.2678335927927 0 0 255
10907.483343893422 -14175.725971013684 440.2218326657093 0 0 255
10907.265973959928 -14175.721854854115 440.1758317386259 0 0 255
10907.048604026433 -14175.717738694548 440.1298308115425 0 0 255
10906.831234092939 -14175.71362253498 440.0838298844591 0 0 255
10906.613864159444 -14175.709506375413 440.0378289573756 0 0 255
10906.39649422595 -14175.705390215846 439.9918280302922 0 0 255
10800.010138720801 -13995.170468481036 451.23968977572713 255 0 0
10800.03938695693 -13994.95075842421 451.2556505921904 255 0 0
10800.06863519306 -13994.731048367383 451.2716114086537 255 0 0
10800.09788342919 -13994.511338310556 451.28757222511706 255 0 0
10800.127131665316 -13994.291628253732 451.30353304158035 255 0 0
10800.156379901446 -13994.071918196905 451.31949385804364 255 0 0
10800.185628137575 -13993.852208140079 451.33545467450693 255 0 0
10800.214876373704 -13993.632498083252 451.3514154909703 255 0 0
10800.244124609833 -13993.412788026426 451.3673763074336 255 0 0
10800.273372845963 -13993.1930779696 451.38333712389687 255 0 0
10800.010138720801 -13995.170468481036 451.23968977572713 0 255 0
10800.064437435798 -13995.162054784629 451.0243677487262 0 255 0
10800.118736150796 -13995.153641088222 450.8090457217252 0 255 0
10800.173034865793 -13995.145227391815 450.5937236947243 0 255 0
10800.227333580791 -13995.136813695408 450.3784016677234 0 255 0
10800.281632295788 -13995.128399999 450.1630796407224 0 255 0
10800.335931010784 -13995.119986302592 449.9477576137215 0 255 0
10800.390229725783 -13995.111572606185 449.73243558672056 0 255 0
10800.44452844078 -13995.103158909778 449.5171135597196 0 255 0
10800.498827155778 -13995.094745213371 449.30179153271865 0 255 0
10800.010138720801 -13995.170468481036 451.23968977572713 0 0 255
10799.796646551666 -13995.138228495123 451.1871122798243 0 0 255
10799.58315438253 -13995.105988509213 451.1345347839214 0 0 255
10799.369662213394 -13995.0737485233 451.0819572880186 0 0 255
10799.156170044258 -13995.041508537388 451.0293797921158 0 0 255
10798.942677875122 -13995.009268551476 450.9768022962129 0 0 255
10798.729185705986 -13994.977028565565 450.92422480031007 0 0 255
10798.51569353685 -13994.944788579653 450.87164730440725 0 0 255
10798.302201367715 -13994.91254859374 450.81906980850437 0 0 255
10798.088709198579 -13994.880308607828 450.76649231260154 0 0 255
10741.391975175071 -13914.265313424825 454.3925235106881 255 0 0
10741.4246345044 -13914.046663155119 454.4150655561715 255 0 0
10741.457293833728 -13913.828012885413 454.4376076016549 255 0 0
10741.489953163056 -13913.609362615705 454.4601496471383 255 0 0
10741.522612492385 -13913.390712346 454.4826916926217 255 0 0
10741.555271821713 -13913.172062076294 454.5052337381051 255 0 0
10741.587931151042 -13912.953411806588 454.52777578358854 255 0 0
10741.62059048037 -13912.734761536882 454.55031782907196 255 0 0
10741.653249809699 -13912.516111267174 454.5728598745554 255 0 0
10741.685909139027 -13912.297460997468 454.59540192003874 255 0 0
10741.391975175071 -13914.265313424825 454.3925235106881 0 255 0
10741.462349161153 -13914.254124535304 454.18203591750597 0 255 0
10741.532723147235 -13914.242935645781 453.97154832432386 0 255 0
10741.603097133317 -13914.23174675626 453.76106073114175 0 255 0
10741.673471119399 -13914.220557866738 453.55057313795965 0 255 0
10741.74384510548 -13914.209368977217 453.3400855447775 0 255 0
10741.814219091562 -13914.198180087697 453.1295979515954 0 255 0
10741.884593077644 -13914.186991198174 452.91911035841326 0 255 0
10741.954967063726 -13914.175802308653 452.70862276523115 0 255 0
10742.025341049808 -13914.16461341913 452.49813517204905 0 255 0
10741.391975175071 -13914.265313424825 454.3925235106881 0 0 255
10741.18373592243 -13914.227240017333 454.3249250983457 0 0 255
10740.975496669791 -13914.189166609842 454.25732668600335 0 0 255
10740.76725741715 -13914.15109320235 454.189728273661 0 0 255
10740.55901816451 -13914.113019794857 454.1221298613187 0 0 255
10740.35077891187 -13914.074946387365 454.0545314489763 0 0 255
10740.14253965923 -13914.036872979874 453.98693303663396 0 0 255
10739.93430040659 -13913.998799572382 453.9193346242916 0 0 255
10739.72606115395 -13913.96072616489 453.85173621194923 0 0 255
10739.517821901309 -13913.9226527574 453.78413779960687 0 0 255
10639.569223138182 -13752.844192659568 455.72831138018955 255 0 0
10639.593367316244 -13752.62445420691 455.751000301243 255 0 0
10639.617511494305 -13752.404715754252 455.77368922229647 255 0 0
10639.641655672369 -13752.184977301595 455.7963781433499 255 0 0
10639.66579985043 -13751.965238848936 455.8190670644033 255 0 0
10639.689944028492 -13751.745500396279 455.8417559854568 255 0 0
10639.714088206554 -13751.52576194362 455.86444490651024 255 0 0
10639.738232384616 -13751.306023490963 455.8871338275637 255 0 0
10639.762376562678 -13751.086285038304 455.90982274861716 255 0 0
10639.786520740741 -13750.866546585647 455.9325116696706 255 0 0
10639.569223138182 -13752.844192659568 455.72831138018955 0 255 0
10639.625917926924 -13752.828296836915 455.5140317969318 0 255 0
10639.682612715666 -13752.812401014264 455.2997522136741 0 255 0
10639.739307504407 -13752.79650519161 455.0854726304163 0 255 0
10639.79600229315 -13752.78060936896 454.87119304715856 0 255 0
10639.852697081891 -13752.764713546307 454.6569134639008 0 255 0
10639.909391870633 -13752.748817723654 454.4426338806431 0 255 0
10639.966086659375 -13752.732921901003 454.2283542973853 0 255 0
10640.022781448117 -13752.71702607835 454.01407471412756 0 255 0
10640.079476236859 -13752.701130255698 453.7997951308698 0 255 0
10639.569223138182 -13752.844192659568 455.72831138018955 0 0 255
10639.355715584112 -13752.815122893571 455.67397732908256 0 0 255
10639.142208030044 -13752.786053127575 455.6196432779755 0 0 255
10638.928700475974 -13752.75698336158 455.5653092268685 0 0 255
10638.715192921905 -13752.727913595583 455.51097517576153 0 0 255
10638.501685367835 -13752.698843829587 455.4566411246545 0 0 255
10638.288177813767 -13752.66977406359 455.4023070735475 0 0 255
10638.074670259697 -13752.640704297595 455.3479730224405 0 0 255
10637.861162705629 -13752.611634531599 455.29363897133345 0 0 255
10637.647655151559 -13752.582564765602 455.23930492022646 0 0 255
10547.222992248888 -13658.901765441888 434.29235547620146 255 0 0
10547.264030518607 -13658.684745887378 434.316872601406 255 0 0
10547.305068788328 -13658.467726332869 434.3413897266105 255 0 0
10547.346107058047 -13658.250706778359 434.365906851815 255 0 0
10547.387145327766 -13658.03368722385 434.3904239770195 255 0 0
10547.428183597487 -13657.81666766934 434.414941102224 255 0 0
10547.469221867206 -13657.59964811483 434.43945822742853 255 0 0
10547.510260136925 -13657.38262856032 434.46397535263304 255 0 0
10547.551298406646 -13657.165609005811 434.48849247783755 255 0 0
10547.592336676365 -13656.948589451302 434.51300960304206 255 0 0
10547.222992248888 -13658.901765441888 434.29235547620146 0 255 0
10547.27763718313 -13658.887815823438 434.0774088424612 0 255 0
10547.33228211737 -13658.87386620499 433.86246220872084 0 255 0
10547.386927051612 -13658.85991658654 433.64751557498056 0 255 0
10547.441571985852 -13658.845966968089 433.4325689412402 0 255 0
10547.496216920094 -13658.83201734964 433.21762230749994 0 255 0
10547.550861854334 -13658.81806773119 433.00267567375965 0 255 0
10547.605506788575 -13658.804118112741 432.7877290400193 0 255 0
10547.660151722815 -13658.790168494292 432.57278240627903 0 255 0
10547.714796657057 -13658.776218875842 432.3578357725387 0 255 0
10547.222992248888 -13658.901765441888 434.29235547620146 0 0 255
10547.011538926308 -13658.856041956073 434.241565996338 0 0 255
10546.80008560373 -13658.81031847026 434.19077651647456 0 0 255
10546.588632281151 -13658.764594984445 434.1399870366111 0 0 255
10546.377178958573 -13658.718871498631 434.08919755674765 0 0 255
10546.165725635994 -13658.673148012816 434.0384080768842 0 0 255
10545.954272313415 -13658.627424527003 433.98761859702074 0 0 255
10545.742818990837 -13658.581701041188 433.9368291171573 0 0 255
10545.531365668257 -13658.535977555375 433.88603963729383 0 0 255
10545.31991234568 -13658.49025406956 433.8352501574304 0 0 255
