ply
format ascii 1.0
element vertex 710
property float x
property float y
property float z
property uchar diffuse_red
property uchar diffuse_green
property uchar diffuse_blue
end_header
9592.250992494226 -13921.790346347838 -222.22167833575293 138 135 131
9161.385930810911 -13456.4497015498 -375.9162791781592 55 52 49
9669.820649481733 -13989.433417755767 -197.56208138077275 164 164 161
9837.057512600257 -14309.615683551336 -66.87495442199229 130 124 120
9565.416658026037 -14187.836497587443 -203.48910928421682 47 47 52
8808.928429724594 -13408.64250179086 -480.63309787536167 43 41 43
9752.471836166013 -14248.892343030575 -130.1228665836137 175 151 121
9686.967395016143 -14148.495244012895 -187.55828658569686 43 37 41
9760.36692271358 -13546.8099582301 -176.1137868666634 142 139 140
9584.762743865247 -14229.113598225924 -185.66224547187727 58 57 59
9573.926891680105 -14533.422621877426 -127.05544493061377 46 45 48
9771.329145494094 -14477.519908171957 -54.856329895747315 135 131 130
9679.752070158618 -14220.486016909219 -168.34594694941748 40 44 42
9666.05993543278 -14530.060282988054 -94.80151124739402 136 140 148
9833.24934946493 -14310.192269174475 -67.1322685189711 39 39 44
9499.821090049796 -14447.761287183861 -153.8080931067554 70 65 63
9772.03540994471 -14281.680037321077 -108.59591567274661 125 120 117
9249.255034693464 -13437.729441445494 -343.5706532071817 75 70 67
9495.203097972371 -14556.890197520856 -156.0168855789819 91 92 96
9785.832460074214 -14237.793341910019 -114.27496885895457 116 111 93
9738.95207963419 -14332.108875964905 -106.75943269573199 54 47 48
9666.499943305093 -13989.475839174496 -197.18777955356455 137 133 135
9766.926562882467 -13771.011662997504 -204.05630171593057 149 151 152
9251.7606956884 -13986.582897224647 -308.7459203704255 95 95 96
9561.475558829568 -13802.73435147619 -247.52180559481098 74 68 70
9306.306633665712 -14240.291104421558 -266.4339063205122 40 37 43
8872.717462440734 -13366.049139798875 -468.5335229286595 61 58 53
9635.588772408459 -13925.510417559095 -213.15114021510877 157 155 155
9815.326805896604 -14199.910819919942 -124.26076124995934 92 82 80
9558.32321836877 -13939.729855641499 -228.24973056443307 104 101 99
9560.075393147388 -13965.532349642559 -229.46219357276763 50 47 49
9435.75435400579 -14401.649080378787 -195.87798141605165 182 189 191
9612.647006262761 -14048.838575048205 -208.36775478876567 24 31 32
9426.014399195095 -14389.702696294486 -195.81434395110318 123 117 108
9182.70036173697 -13720.958118371982 -350.6737812723236 67 26 32
9838.281674182814 -14291.76842878784 -70.61464322696294 56 54 57
9119.592644331735 -13942.998381383188 -356.1785520129409 125 125 130
9027.401324614324 -13892.424894336476 -377.93949111498927 85 82 78
9660.39029606988 -14531.734908824888 -97.84460037114316 164 166 171
9228.6997545004 -13936.716895858615 -315.8663264212969 95 90 87
9594.571424111804 -14230.929313566709 -179.07193303976598 70 66 65
9703.06103298416 -13996.152214669693 -192.78263146776516 49 45 48
9288.824572876176 -13909.891879192084 -301.7115801569384 28 31 37
9304.138287219997 -14038.743813584002 -291.40031056800376 72 67 65
9747.075324895668 -13619.75037826765 -185.758148093418 63 56 51
9816.720444860548 -14252.753482721822 -99.6857285424468 123 122 125
9225.20052908893 -13944.849799699605 -321.5495111168365 48 46 47
9550.979035276738 -13853.46940167935 -246.65393759251015 148 144 139
9251.029974085255 -13627.755472259449 -342.4349651068334 120 116 114
9698.812204022985 -14333.184411086442 -123.81155747955894 63 58 61
9635.162891012851 -14260.000175763598 -160.96108715608827 90 85 85
9595.141237318594 -14222.878238894857 -184.96145166390465 59 56 53
9231.952279306535 -13403.692273637018 -344.51520288973137 68 61 55
9565.50709266856 -13859.910280495922 -241.25461988766367 145 142 135
9521.885111405521 -14010.233218392683 -234.49527758279052 50 45 47
9145.514519303826 -13525.438732580082 -381.4307174558748 82 78 84
9645.923338946966 -14241.902053720929 -159.10096642423858 41 44 51
9671.839801001179 -14545.287331739737 -86.10068891670062 170 177 184
9705.795242899223 -14331.114080968597 -121.11670530069046 154 152 155
9114.036163974612 -13938.679298518355 -359.9779025970775 38 38 40
9219.811752123333 -13705.186109389153 -350.85460781460034 148 151 153
9590.850527710298 -14034.477379723752 -210.6363341673826 123 118 115
9650.01069326673 -13859.766635030033 -213.16984759145575 73 61 55
9567.359316567292 -14531.785643121362 -124.93381929432309 127 117 106
9616.45424502747 -14252.773886243594 -171.53589326668478 150 153 156
9726.345597847316 -14310.362657070611 -115.9620686884783 76 69 61
9683.857065198625 -14052.237429976729 -185.34853241788437 174 172 168
8964.234129354287 -13682.830147198349 -408.6876451702301 62 57 54
9519.126050715806 -14018.673368743095 -239.88446188593278 71 76 80
9555.692398600446 -13974.804682446025 -229.52468613947443 51 52 53
9444.48064725868 -14396.448910175463 -204.05798631988603 156 161 157
9029.960886193998 -13801.968003049855 -390.5523348051741 92 97 100
9116.941672803187 -13584.66036895678 -379.2298682584477 181 180 184
9572.936149714178 -14002.526818093213 -226.25506410795654 92 124 182
9257.282705476271 -14175.439354679273 -294.566066009641 77 78 82
8702.711672571984 -13548.853009734876 -492.26207698333894 56 55 54
9105.130758864774 -13621.065244494559 -375.78461913971444 28 32 40
9525.747285724687 -13934.883978036514 -237.09517621321388 40 35 34
9752.611016387073 -14276.280997373955 -125.1887339527622 147 150 153
9717.944983093867 -14543.869624239986 -64.91584547490484 137 146 163
9712.797488225422 -14247.198212419675 -147.0915801994466 89 85 85
9720.229322079364 -14489.875306388205 -67.72111651738558 114 112 114
9210.327811250078 -13550.620068836677 -357.1633023082748 148 152 159
9511.813153092506 -13825.387187882561 -269.64676013010035 98 99 111
9504.31515428601 -14367.037125467508 -178.61278594361178 34 40 38
9520.134704826665 -13759.460850211832 -276.30052507196757 69 67 67
9252.42292652191 -13944.492351296634 -320.5092160710797 69 67 65
9300.545974394885 -13677.810981346698 -318.8388732950395 75 70 65
9167.880205865074 -14042.962255160463 -320.4858124277546 33 33 34
9749.533009063814 -14354.529508023385 -93.0086272572607 49 51 57
9738.248518614435 -14479.71160190673 -67.52222954713017 209 211 213
9581.499072813087 -14105.185909181939 -208.06016359087198 72 76 79
8910.043668339442 -13216.178605505245 -447.3614971138122 100 90 83
9502.2010178903 -14046.43281214541 -231.33480327784255 71 60 55
9492.570938602366 -14229.644204954737 -217.1468828271074 45 46 53
8882.84075635774 -13528.498489887137 -448.8813198901749 142 142 140
9179.895150065122 -13731.76514567303 -359.0311310535658 85 43 43
8892.688953156829 -13734.563776578498 -434.4259895925066 17 18 21
9644.628790905386 -14531.989966313098 -110.74275845308217 170 177 184
9591.697840021128 -14037.952370708419 -211.87592975601046 104 103 101
9558.61838904793 -14219.711527641222 -199.67608267016163 129 111 100
9769.79506915728 -14252.216712178852 -122.09031817506667 67 74 86
9568.30156250049 -14083.540320796472 -210.92110588145331 27 31 31
9759.480540361257 -14411.01028990314 -82.99830968869142 117 99 100
9555.828618920894 -14412.655555234065 -154.03761752173577 136 140 145
9638.935282923738 -14178.936513220804 -190.04849733604541 80 70 74
9524.703191060336 -14040.140917317869 -226.92313459890326 99 96 93
9317.724857875372 -13395.136964105614 -321.93640733518544 109 112 119
9603.474440936487 -14141.540542675713 -223.1355199867181 163 165 163
9524.194416335113 -14374.46762016571 -165.34969884507922 135 126 124
9717.259622664262 -14539.88298340541 -70.63644002656142 150 155 157
9846.037713344887 -14218.813861563001 -105.24834950825236 56 55 60
9629.872275835984 -14411.548108282639 -153.37791519867676 162 166 170
9659.306191465812 -14532.052015678346 -96.07986301849537 166 169 172
9273.819920629043 -13881.179938654304 -331.24357747029603 146 145 145
9464.614822170264 -13987.314276100884 -249.11102721424228 60 56 52
9728.272986669166 -14284.83568064807 -129.2384223228589 149 142 137
9621.175674271706 -14524.416786303771 -113.83074979851962 77 83 92
9744.290744686756 -14316.660858785839 -113.11437699641058 79 72 68
9558.909013608547 -14060.086228994187 -218.0968029068083 27 32 42
9483.076638638619 -14027.859184447072 -233.26838069992186 174 170 166
9265.60894770014 -13547.636528140223 -334.41616189406244 67 64 48
9140.547820525577 -14067.157610989838 -334.18368587978694 45 40 44
9103.400611873962 -13763.377122881766 -368.22606104828833 38 36 41
9456.702811060657 -14054.550978869556 -241.68734086678216 134 130 130
9523.63648200228 -14021.331135351822 -236.54539128567407 82 86 90
9638.360684189252 -14573.813679168674 -80.25121499085138 135 122 113
9427.681299104184 -14416.82206648858 -188.05576491736565 61 68 74
9576.345377642177 -13993.194289088271 -222.4105694807399 37 39 39
9181.863601758307 -14043.93151118183 -316.7322160948859 60 60 55
7322.617839646976 -13067.50216018589 -969.1549634812328 134 133 130
9572.356725428066 -14018.011900696702 -220.5929138195437 60 56 49
9741.381661397501 -14241.918770287737 -135.13632014183491 38 47 43
9558.968609785043 -13946.801848264344 -235.48366841991137 77 82 84
9162.754294718026 -13894.160538418251 -347.54537880958327 74 83 88
9426.014399195095 -14389.702696294486 -195.81434395110318 123 117 108
9508.958953345309 -14032.76824164188 -234.03119394165412 160 161 161
9609.168467220688 -14168.862091989635 -196.144472393384 133 136 136
9568.761095206979 -14473.323768363065 -163.27391746952304 42 46 60
9567.164315612674 -14468.526108040065 -151.41441339956933 33 40 52
9464.432001560652 -13990.275235578243 -245.66051705762249 176 175 174
9213.513390985163 -13712.818530681256 -342.97330727556385 142 145 150
9380.87754123328 -13588.764286773134 -295.5838105975226 56 54 49
9706.91677877515 -14196.562145517286 -162.67632026894483 109 108 110
9737.278606566268 -14260.618758345294 -133.13302929122068 113 107 104
9643.797849417895 -14181.88131523821 -186.80855355588432 98 85 86
9565.97460073009 -14473.210571279382 -166.00802626435498 82 90 91
9568.537535965603 -14551.019344786553 -116.95579435703058 84 83 84
9076.074033471294 -13889.850860120443 -372.52097356937253 77 81 90
8754.256382539606 -13532.668261651144 -484.68391812772586 73 65 58
9920.61631233543 -14259.88051899794 -46.11055893489949 165 165 164
9907.511773892391 -14258.055764093555 -48.520720194427604 124 105 95
9623.95436089986 -14490.795366638073 -116.49303857904464 152 148 147
9571.967564088016 -13897.751296188373 -239.54704380161346 58 61 65
9629.85956377258 -14078.997419667818 -197.27187183479563 62 56 48
9529.818002305174 -13973.675231228219 -236.06369426036423 82 78 65
9679.784937952838 -14586.957172784423 -60.831793480313976 67 69 69
8947.59205821505 -13429.37847891034 -445.6431252694427 82 69 62
9630.652549469934 -14567.128964598869 -86.89246153858497 48 52 57
9238.327540786315 -14004.202846811773 -319.6492323746214 55 46 46
9281.45638716044 -14215.019601019316 -274.7239566856811 106 113 119
9727.75486199331 -14052.697953208431 -176.37299396651147 68 58 54
9970.584287095266 -14220.230014704272 -41.69405402821747 62 60 65
9277.779445996857 -13870.076760434336 -325.3154889502786 53 48 46
9096.299606573119 -13727.261729671554 -369.76084289658604 53 53 53
9715.053510919586 -14526.46051829491 -65.72126050790514 166 162 160
9058.648697208831 -13460.677911395906 -404.3683423703114 181 177 179
9055.731250739022 -13919.255173446085 -373.73526254751613 132 126 121
8342.384318695633 -14307.12056607584 -550.229827702521 167 167 165
9887.445798774108 -14177.804530856256 -89.63688492317388 125 110 103
9148.86960259791 -13548.1070085263 -373.6896769064588 176 176 179
9170.99294334945 -14002.269814345516 -340.11371850204483 167 168 172
9733.663213210215 -14484.025895140543 -67.4247887687083 74 75 84
9526.432137306922 -13865.442169746517 -259.04777883259965 58 57 62
9622.351947340836 -13566.89422848164 -220.2852758940051 120 120 118
9109.771306872788 -13436.749668048586 -394.887657379037 179 188 197
8550.44432089152 -13370.321683288488 -554.7327634550478 87 85 83
9374.894146798317 -14353.938642584097 -235.45660998573592 70 86 101
9515.155206115654 -13907.13422560941 -240.60057802588102 170 170 167
9450.982470159277 -13776.963568160181 -262.2713157342968 135 135 135
9071.530830211186 -13924.343579222812 -362.3806098823529 83 82 82
9512.13656176527 -14539.252031471588 -159.78584180293814 74 69 72
9553.83987293191 -13944.95079646613 -235.90395304869222 137 135 130
9184.811767780106 -13986.39915216215 -335.00339497228 52 47 48
9218.905830435482 -14097.825748429923 -298.9026017260623 61 59 61
9246.914599367774 -13990.473254581206 -336.932548844413 171 169 170
9630.543693664486 -14205.146093990199 -175.66857464326645 49 51 56
9594.543203041245 -14386.745367228841 -146.45757238548387 132 137 138
9666.05993543278 -14530.060282988054 -94.80151124739405 136 140 148
9528.273596070327 -13861.4073960901 -247.4875766169809 71 66 62
9155.05977120121 -13779.539394796213 -353.4120019299585 27 27 28
9188.8504091528 -13586.774818912865 -354.1553761967578 72 67 64
9350.545782718771 -14346.388353236527 -245.5004029417127 176 180 189
9291.836005669024 -14049.993806092121 -284.4077311490056 64 61 54
9279.243848857188 -14210.983832956143 -272.02933089813 34 37 40
9753.224884176409 -14249.899684282344 -135.4375192991296 81 83 88
9977.53976772098 -14219.604450656247 -37.5258353794306 159 151 148
9545.453186676414 -14548.498655307048 -127.26973507322833 123 118 109
9548.964479017955 -13898.52174498216 -233.5084163937106 61 54 47
9690.516134766125 -14544.046357077397 -69.1836716130311 117 104 87
9957.972977905898 -14213.777418935728 -46.683793317863625 165 165 168
9814.979794992292 -14215.52182493627 -112.43605937163126 77 69 68
9567.665889962338 -13955.780880633423 -228.23323924965538 93 91 87
9648.04457460205 -14191.800980043232 -175.74159712701908 163 155 149
9628.523650521622 -14172.893643707894 -191.3233106863258 90 92 97
9599.475355192477 -13903.652120869327 -224.78524615145136 62 55 52
9633.65941034464 -14070.400396790319 -198.20248460456088 30 34 41
9349.78625031104 -14206.322637239608 -249.80926885025247 144 141 143
9307.193816421812 -13672.42368931632 -315.9580676345834 139 140 145
9502.147475734102 -13996.127389781741 -241.57976581872342 45 36 37
9628.647187246434 -14531.522361654745 -111.75334756137154 103 104 106
9654.339169764246 -14578.245133032482 -73.33728117385839 52 51 51
9696.694901389574 -14097.803412158031 -179.7068965943812 61 48 47
8983.055041009586 -13631.346388891403 -425.0144188659346 133 136 139
9641.991629015058 -14082.828260345379 -200.16750905263316 120 123 125
9167.814485443705 -14036.475335469451 -328.00140061971473 126 125 131
9538.435885298075 -14123.644857850786 -217.75511208441026 87 74 71
9210.687123694805 -13701.76344161531 -350.05150536898395 145 150 156
9166.567653317838 -13819.798559252382 -346.475029202813 42 41 42
9640.598369561969 -14262.201802245963 -157.26778452187446 60 59 58
9464.295961516167 -14232.666878075204 -227.26373903795346 60 56 60
9250.718338496072 -14174.722900716824 -285.1772044879279 102 103 105
9554.032791121297 -14054.862694083706 -216.9793219516699 63 65 66
8844.418783713 -13374.436967255626 -468.83823324695766 75 63 54
9583.85080586899 -14008.261033216722 -218.95631746172035 96 91 89
9722.00947318789 -14470.39102021997 -80.84144538450971 37 43 49
9667.687980954941 -14428.340362186247 -112.63147474314778 122 120 126
9513.966247617813 -14532.803619516624 -160.9313183643919 102 86 77
9556.662794994358 -14026.528151456483 -225.25837180609955 48 44 41
9131.80669405721 -13977.13262895449 -353.796607055787 102 102 107
9762.260590043485 -14438.712828777767 -75.64446822811124 166 164 160
9640.598369561969 -14262.201802245963 -157.26778452187446 60 59 58
9568.95142947493 -13863.102130298048 -238.76886721285837 126 117 114
9512.47200768427 -13834.070610954304 -258.4522766864798 115 119 124
9367.962675348832 -14387.404218906544 -216.79916141130255 89 92 87
9485.38883717434 -14056.950629979596 -231.18729358105475 67 60 56
9036.524968543765 -13812.737631420718 -383.49477840314074 28 26 31
9360.675159929406 -13714.763029948566 -291.19028445710586 111 112 114
9122.13844626336 -13948.169571385188 -355.66385389084127 115 116 124
9802.122523319431 -14299.2730216698 -86.5140979408456 78 77 77
9578.982116643521 -14372.568908819465 -156.4829296744097 39 39 42
9761.376867064735 -14220.050063548319 -132.86332329537208 66 63 61
9531.128683785673 -14024.847181792347 -232.62550022330254 78 82 83
9283.459291860616 -14205.645018075504 -272.21866356902285 102 106 111
9244.183156763984 -13955.956084299305 -320.1873300756854 92 93 95
9366.170522802226 -14351.27061880324 -236.77832015106722 174 181 189
9353.402018122995 -13959.687895535784 -276.6900994604027 167 166 162
9483.851145174662 -14337.713266404342 -203.86934848358771 144 147 149
9539.486260460413 -14047.940314762634 -224.80930959444035 71 65 54
9561.331696129204 -14511.502404734356 -142.54141091332548 71 67 66
8678.831443989826 -13392.372472286947 -517.3164684078049 167 166 163
9556.538988713388 -13975.110580463223 -225.44230042144315 62 60 62
9702.08598488145 -14152.87496193461 -182.20267888707585 99 94 92
9136.223222223749 -13454.337073057739 -380.34280978578295 56 55 52
9321.162165065825 -14255.722671352069 -254.0057822461471 81 76 79
9185.138815602902 -14091.625787158544 -323.73934835945585 32 39 45
9598.769011223541 -14550.234598170877 -109.84885849093641 103 95 92
9674.254147292188 -14174.395527193756 -180.78086490263416 72 83 91
9139.288631088672 -13983.167042661606 -355.06307684447506 71 69 72
9666.510542353924 -14472.536486828472 -110.14363023495821 60 63 69
9248.154437704827 -14168.736057973681 -294.2970665999278 136 113 90
9105.581947899625 -13936.40456960646 -353.79644655352433 23 24 31
9039.230984506903 -13608.189176676507 -398.46075378142314 145 148 151
9669.396186173026 -13987.374854034435 -198.3794466404899 166 167 162
9476.147501555328 -14012.281098098521 -240.5494197771159 55 51 48
9115.995962793657 -13950.50162859939 -354.3605897335316 55 56 60
9048.99009335874 -13885.122444984541 -378.85791471838695 119 123 123
9668.308760436652 -14412.369694305757 -116.93072426608043 168 162 150
9131.302923604126 -13955.427361215538 -352.64460135358866 51 52 52
8800.101754275995 -13348.334759854313 -495.551910796719 158 160 164
9720.011191409194 -14547.220188650695 -63.456352314376325 177 175 172
8716.745000425906 -13527.713892685186 -489.4075253100274 61 57 54
9530.091054352035 -14559.35778038862 -127.69734196836254 197 200 201
9508.569504841282 -14528.581176224361 -164.178966440777 110 94 81
9267.081087026663 -14029.336658331447 -304.11350698897155 91 91 92
9135.084888862497 -13986.746635384741 -350.7312344966495 33 31 37
9611.111906142793 -14525.241051757763 -111.28446109675222 151 154 153
9313.22010762286 -13494.973488522719 -323.40690637923143 104 102 99
9569.798041448383 -13578.435958591941 -236.69824041149704 76 63 57
9186.206028256727 -14067.835695293059 -321.22380184982956 23 21 25
9568.802997467621 -14516.5638732991 -141.90396530286836 95 103 105
9086.622005670428 -13909.475561555853 -365.91134384892024 56 50 45
9787.925086973473 -14263.379449458627 -113.57106593834874 143 145 149
9633.738212230417 -13938.469655709217 -207.87010558188922 156 149 145
9482.1255908438 -13819.342595212205 -263.6454596869812 75 67 64
9606.254755538537 -14098.722947232252 -208.26251525719985 60 63 72
9375.026357472801 -14005.174280633517 -266.126316662924 171 171 170
9517.157556020358 -13939.049117532799 -222.90841991778902 191 190 184
9282.708349450506 -14351.215531470181 -266.84791987653176 68 67 66
9491.032764515496 -14226.76500939978 -223.02543924854115 159 164 167
9243.41742480047 -13419.0898834589 -344.1154918296446 67 65 51
9301.42105316523 -14028.94686609056 -281.5088038375726 78 70 63
9063.91206588774 -13903.440532759148 -375.7019811101986 136 141 146
9090.827045528145 -13711.558599717182 -372.20966428591436 61 56 55
9533.982248480514 -13883.566552619359 -229.22490791777946 81 77 79
9657.584310811768 -13987.953136519163 -199.23075162791295 145 144 143
9762.2212118111 -14327.871359069772 -104.8428575512459 71 67 65
9268.437100190064 -14009.010801462931 -302.7609981250199 116 117 115
9386.750321731872 -13923.065432201567 -270.2057500029486 165 162 161
9770.366004284288 -13577.247896012332 -174.55337824686006 112 104 100
9544.242724170328 -14019.551624874355 -233.93608537157695 121 139 136
9479.864556606257 -14145.75146590654 -224.3077064371884 70 60 55
9679.752070158618 -14220.486016909219 -168.34594694941748 40 44 42
9160.971881811658 -13891.64020001493 -350.8117192838258 49 52 58
9164.33034393012 -13463.645916442594 -371.8399863215371 145 144 149
9016.496014827066 -13852.51786245212 -379.8743300779819 39 43 44
9414.779064760694 -14241.440351598103 -241.28709166898193 100 96 88
9335.820370993079 -14328.274901270042 -237.36470656488328 46 44 43
9426.925629788308 -14055.928410475046 -251.33946878778315 169 168 163
9052.793957476755 -13559.559506590422 -402.48834107350484 79 70 60
9112.0449206546 -13951.608706150606 -351.7921275456522 14 25 30
9655.80977978179 -13889.687024746363 -209.13555406349886 105 95 90
9801.498959852848 -14257.339172396249 -88.58280848233407 117 112 113
9727.718395520675 -14541.432606095406 -68.0574412811672 80 81 88
9643.162857388048 -14532.643147717954 -107.72608642777013 92 99 110
9292.900423150997 -13889.013770817013 -313.80982460624136 130 131 133
9516.756591414178 -14012.275113577096 -236.70106218707008 52 47 47
9592.107385927025 -14119.866600703985 -206.5970061971132 122 118 115
9306.306633665714 -14240.291104421558 -266.4339063205115 40 37 43
9750.870856582902 -14447.747446787404 -79.29475471385851 128 96 95
9328.628143909436 -13639.68498350687 -315.2748928868766 60 60 63
9969.805131488914 -14217.353399898624 -39.43142293477464 171 173 173
9779.788734451879 -14261.439634904405 -110.2047674961029 113 113 114
9727.884178518718 -14477.723784464863 -79.7177608946017 34 40 53
9729.819678088203 -14279.849901653937 -134.32029301552194 154 158 160
9585.791467674435 -13963.443391284181 -231.0753846102864 98 86 83
9594.68271022721 -13992.226838048291 -216.83438317810658 29 33 38
9643.677172726477 -14535.9649596166 -94.95347592834761 24 37 47
8971.54977211767 -13464.48282141717 -430.1250591668847 175 178 181
9068.105629432494 -13484.461830769003 -401.50064933289275 183 180 177
9960.27948653705 -14197.069422299957 -51.16028881460189 55 58 67
9348.499124258064 -14147.386925320443 -260.0223188779085 114 113 117
9557.53386001322 -14035.714162313623 -222.03613365114686 24 30 34
9506.40934865515 -14440.832413482185 -160.08752953228043 56 53 56
9534.482434070376 -14072.222422795274 -218.8530719682686 95 81 78
9650.416276114314 -14134.455203258407 -193.9400904306155 169 170 170
9095.017976719124 -13462.607157631992 -395.8857716229566 136 136 141
9377.138993150513 -14355.793317444191 -237.5487744556036 177 184 194
9796.431064273751 -13562.921706024928 -170.06621090323998 50 49 55
9256.27281139809 -14178.778539967048 -287.20263476106504 36 36 39
8905.084412836348 -13740.30490476951 -429.12373085730354 22 21 25
8196.499446201644 -14092.712856799557 -622.0257671632967 148 149 143
9420.487084632328 -13730.339443073548 -279.12418119208945 59 53 54
9639.13298052111 -14071.904656985784 -199.7637470357927 90 94 97
9475.326574384022 -14265.341327047456 -215.10133836542096 180 176 177
9911.075172703735 -14256.291213698627 -50.139353245700526 61 56 59
9717.944983093867 -14543.869624239986 -64.915845474905 137 146 163
9901.713370422414 -14284.28168307961 -44.38945409026649 124 105 98
9674.834323083058 -14146.517722328777 -184.73557216487717 97 95 94
9762.078184140319 -14354.779559493674 -88.82981599987374 76 78 80
9550.678997545616 -13960.322155653404 -231.51832115277284 49 46 45
9536.081262537831 -14025.069644885845 -233.944238252863 37 38 43
9247.075187158185 -13505.416680299788 -345.4269474717272 144 145 149
9562.321158486877 -14318.200259590774 -174.62516097949083 47 47 49
9342.189018000181 -14279.91259032274 -243.5309219838729 50 45 45
9651.463977649337 -14441.043196830587 -120.58722682095474 171 160 152
9335.000902713995 -14325.055886875747 -245.88013377400216 81 72 70
8917.315374173882 -13491.848225940636 -449.3512798783071 69 63 51
9532.67539207011 -13851.145855052899 -234.0509186583754 52 48 47
8720.739241181076 -13394.152915622928 -504.3294592046203 83 73 64
9195.21084483921 -13493.078678099417 -357.7350726887969 80 71 66
9502.845380841502 -13815.914095076849 -263.6914052615622 137 129 119
9505.250731412862 -14358.022165602893 -182.4658411194487 52 57 53
9344.997060141695 -14376.967896194805 -226.87096702080174 117 111 99
9526.631331012843 -14539.265440248706 -151.66106524582008 98 90 85
9186.17029513322 -14035.899865687461 -320.67661744982763 53 48 46
9660.23476911191 -14531.430584690128 -96.96150908574035 168 168 173
9044.803086747897 -13918.808790699672 -371.61409733934767 58 56 56
9499.142266214832 -14434.925101020259 -163.13640187350694 100 99 87
9804.055191706479 -14324.587811351814 -84.86243574635374 137 113 102
9331.233198135818 -14251.947948673453 -257.2650239226207 33 38 44
9199.769230386566 -13538.705134335778 -358.77994806099025 74 66 59
9708.983282463629 -13661.907846543003 -201.43016197098083 34 38 44
9629.987726114829 -14494.518532513031 -110.92812972363696 161 150 140
9601.473739795554 -14179.781155653249 -196.75097391390435 51 48 47
9487.311024330285 -13735.180693366681 -274.13627594631123 35 37 43
9154.006116135342 -13852.339050199002 -374.8210067347542 133 140 147
9699.54669327838 -14328.336481110697 -125.84289200323794 152 153 155
9513.093242306832 -13915.69086620438 -242.4070672623109 54 48 43
9348.012799472841 -14281.929268229536 -247.71123254732137 53 50 52
9551.23520917536 -13941.94133541978 -231.9460847373892 126 126 122
9181.72038225795 -13720.870841279093 -350.96195184737417 67 26 32
9648.860714804248 -14531.346473701038 -106.43889354999337 123 126 128
9610.724682708478 -14415.61683146918 -156.92605586874254 145 150 155
9475.454827746527 -13747.92901137705 -280.8196524434691 51 52 57
9274.863587325677 -13909.64079325996 -301.5500265931128 142 140 143
9473.051762366502 -14048.622956260062 -238.63330766847267 80 72 70
9231.541696978913 -14097.50600846583 -297.6054191332566 109 99 82
9249.103657996746 -14118.89875952797 -295.99896370325524 23 24 26
8919.60172060081 -13458.28085663734 -447.9603158366024 58 54 44
9243.347866238099 -13507.847663338005 -343.5925989399876 42 47 48
8706.362808765136 -13334.781500815223 -517.0772621049664 70 60 56
9568.054579132864 -14545.717644015958 -121.80732240031766 95 93 87
9551.278991180985 -13817.6673527231 -220.93949924903302 105 105 105
9591.649542673413 -14419.719510200648 -156.2314651070506 57 65 59
9923.995395018224 -14280.01685010832 -38.71226517831646 115 97 89
9855.694163114611 -14322.948420402232 -66.23494179243544 118 127 144
9639.111547404409 -14131.684602325598 -199.814274896895 156 157 156
9469.564315363688 -13807.8463878269 -272.39521909002303 53 45 42
9340.216025270269 -14126.998940818065 -265.043600285857 148 148 151
9648.133505039144 -14141.992742073113 -189.22369123298483 92 90 85
9239.56866754807 -13537.366966210062 -349.6859781267861 75 65 54
8986.039927363241 -13790.739914870865 -406.3654372898092 38 42 45
9577.16421163433 -14715.119900161124 -72.461264343162 210 212 220
9580.534359872721 -14315.659353918329 -162.76952781573334 58 59 63
9505.2524260089 -14029.053842669593 -240.52887779827415 49 44 44
9219.032488968018 -13705.30510444661 -341.97675000347533 144 149 153
9214.603399748388 -14092.384433559913 -317.13567408613596 64 67 70
9284.792617037023 -14211.232987040878 -278.20745220689383 114 120 121
9481.096524367915 -14535.80200549266 -180.32076828791142 98 85 79
9941.530692622799 -14248.136272258123 -49.56803964570947 81 77 77
9510.624148508407 -14167.118190537227 -214.5385648137194 47 41 40
9594.394122532702 -14415.060975310942 -165.6905377737363 65 56 56
9797.205100961968 -14262.286496463117 -110.3127131096332 140 144 146
9801.331788991616 -14430.16410893819 -54.372184508916355 68 63 62
9887.524891227391 -14320.720517628004 -47.75047729059996 67 64 68
9746.781060656174 -14466.458177777478 -66.10546657823902 168 171 178
9714.22938787731 -14546.082452792567 -62.235043741451356 126 138 159
9566.4760239156 -13827.354871086924 -250.48591148765658 55 58 61
9668.11650451998 -14585.324369981863 -65.98521800080466 47 43 48
9800.34220783129 -14324.625668769782 -78.63724909392745 109 113 123
9055.921801357574 -13893.678907583862 -378.067691530611 139 142 147
9200.595555773656 -13889.19037455863 -340.90193748167377 113 114 115
9616.965606555967 -13623.114295186018 -222.3228140569191 72 66 64
9436.16312100754 -14112.563161728316 -241.7436576237829 63 56 54
9570.765049308246 -14008.44923216978 -221.9689298872678 46 41 42
9594.635695420158 -14035.429915490218 -215.45701105059993 48 46 44
9720.964243361077 -14477.454213053714 -81.25862516424444 174 174 175
9697.81594396167 -14414.927847630135 -104.27042159323271 42 44 54
9187.041175527314 -13852.042386667354 -346.1109787396307 103 106 111
9481.605568315052 -14023.042558357734 -233.59905345526838 189 185 181
9341.509125311459 -13591.041747800999 -310.26602649521004 75 71 60
9679.331619321903 -14549.789302384319 -71.72253425386278 98 84 69
9754.99045969474 -14276.546661848595 -112.35663884225576 66 63 64
9734.784219446228 -13610.849778781132 -187.35133559921746 84 73 68
9570.765049308246 -14008.44923216978 -221.9689298872678 46 41 42
9338.331303184705 -13807.565849794019 -314.9035858238366 123 124 126
9536.386497314927 -14547.91365636629 -136.68742883927823 42 43 46
9955.808187577228 -14246.715824639718 -43.479116040702756 43 47 47
9366.170522802224 -14351.270618803243 -236.77832015106785 174 181 189
9667.400613827525 -14283.745651202438 -145.97016725415315 46 46 48
9697.727460389347 -14123.463278938234 -180.82763562831457 66 60 63
9717.393547380883 -14254.218054657733 -136.191846911775 114 114 118
9882.298660456698 -14174.560881220983 -90.67654800170426 181 178 176
9322.78463346319 -13910.442608760814 -294.5708903461579 170 169 168
9034.20000123881 -13362.409236026948 -410.30397676826607 124 131 137
9602.373825009434 -14032.919531512298 -219.17066495384813 31 32 33
9573.72082742683 -13879.854751151632 -232.18428377223742 127 126 126
9176.414871148601 -13474.21560822358 -371.00188091288544 169 173 180
9074.006855355294 -13852.202909728776 -387.6993087551134 113 105 99
9578.4107788747 -14533.379616714928 -126.16731007979823 130 118 95
9083.841746103095 -13871.97520584259 -375.7038685965099 76 76 77
8847.201450317034 -13575.71124858079 -450.0230766002032 73 63 56
8945.267367457443 -13480.847061067963 -436.70626578314466 58 58 63
9469.676861777178 -14441.553505677153 -165.11249245818112 65 60 56
9552.985713564993 -13951.656366100626 -230.11593023712786 35 38 39
9219.074591336677 -13710.596863105444 -346.0478248730926 148 150 155
9675.445679799877 -14212.940132284493 -169.4684274471294 42 45 44
9589.172204389582 -13872.85667724692 -232.0050054691273 41 39 37
9571.116411796676 -13845.562201959836 -240.81178189277614 101 89 83
9605.169477447207 -13517.363589030985 -228.46080012013078 38 36 39
9666.895308927025 -13874.8254673055 -203.7065096814353 128 126 123
9488.082813788058 -13951.731253826276 -246.76011950805756 144 140 139
9444.824252063689 -14450.332490020499 -168.6304737337242 210 213 216
9650.543022749445 -14538.241336394349 -90.51006744372447 137 142 142
9724.41425997754 -14259.123446374955 -141.2238311789205 165 161 158
9609.555803229503 -14522.713227933442 -112.9926784647557 71 68 68
9379.101349508821 -14178.621290862451 -253.90222897320137 50 49 54
9863.341861218252 -14169.369955301407 -102.55099648681276 163 153 149
9623.45442099124 -13924.692360068517 -211.23616230727967 72 66 60
9716.425458097108 -14265.83442403534 -136.3857993836857 165 172 176
9762.62178902846 -14391.866558383728 -85.98053961412863 154 143 137
9772.680604399444 -13581.37751882472 -176.5185311065147 52 48 53
9348.354395285503 -14136.233059169479 -261.81777285652544 120 114 105
9225.030576978932 -14145.203016874022 -303.33274764001374 48 46 47
9166.656247597264 -14040.908388627899 -325.5617720969191 45 44 39
8804.417368197832 -13603.326564141425 -459.86341100320925 78 68 64
9580.113720240292 -14523.18448209078 -118.74985148811382 141 141 144
9817.38706528617 -14280.383853409268 -83.43833130914349 48 51 51
9647.373560348206 -14140.945867958173 -193.10626881317242 160 168 171
9767.060601245727 -14221.248873828672 -131.7386834694143 50 48 51
9662.724986953057 -14522.266857195213 -105.82294989681353 92 95 99
9655.976061345507 -14141.721216172342 -193.18584819126426 56 57 63
9760.894443351832 -14419.254794659202 -82.40592880607211 169 168 165
9869.01181539636 -14178.881305239345 -98.13409731929313 126 110 100
9594.455802703962 -14110.859110984078 -203.82343516984918 38 38 44
9086.398077665088 -13578.214118874213 -394.2727033069322 181 180 184
9525.3304129894 -13769.040481417598 -270.1270708775748 119 128 134
9173.95182644474 -13743.293348281532 -350.3543212124218 48 41 47
9260.680086403325 -13986.918107865691 -313.0174980696328 108 114 115
9586.189570851217 -14109.838728930512 -210.14337532595053 38 41 50
9770.815054749542 -14473.680886919079 -59.65220543123293 61 65 75
9361.494759964131 -14128.23202318592 -267.44803229299896 130 130 130
9207.238233845559 -14127.666369907825 -302.75596816832757 141 132 128
9693.82266106143 -14377.944031116434 -112.24138455028411 71 58 59
9215.706092797775 -13843.119874235043 -344.5064496014356 90 92 95
9165.962770064853 -13871.330580834145 -368.03622467683573 53 49 49
8974.188338992175 -13882.802056914601 -405.5005708905796 69 65 62
9201.604421583375 -13459.057219884855 -358.3752556222198 109 110 117
8811.367887431754 -13376.719214622024 -487.60687867749164 175 176 180
9616.45424502747 -14252.773886243594 -171.53589326668498 150 153 156
9616.917560792066 -14168.070298294579 -193.57830367505338 39 48 65
9488.923574085944 -13918.105490348444 -242.67708023792002 157 157 155
9371.250470511006 -13628.382356923104 -301.5557823881013 112 116 118
9355.44881567869 -14145.017424736636 -260.1810901156642 134 133 133
9752.728658402773 -14249.011803529866 -131.9303610713686 161 146 113
9668.65563003885 -14391.573081644441 -123.25697744221523 167 169 171
9873.587784355821 -14346.365575268801 -49.3073043772213 73 77 86
9787.5397539234 -14229.794432528353 -118.46109976847927 62 60 63
9524.144610882264 -13927.115697219471 -240.00599376846137 55 51 49
9716.958901706135 -14540.681909260144 -67.24572163703468 100 100 104
9703.862150552177 -14052.295246996155 -179.6667111758524 110 106 107
9464.99541772249 -14412.831891569986 -189.34693767459044 133 140 138
9567.622212661734 -14294.44757431287 -174.98647568779836 113 103 90
9162.050942819713 -13987.627212363594 -337.181531276998 90 91 93
9276.36581526549 -13501.662734162897 -337.3053435370356 186 187 191
8903.928059634463 -13424.607632473888 -454.0031975235103 142 143 146
9962.582103410587 -14225.769598234778 -43.20807613392035 78 88 99
9551.323154376749 -14389.98817120436 -158.79952772479356 125 114 92
9768.651364416826 -14219.09555044375 -133.16771483493815 85 81 81
9765.875684600433 -14258.848945064476 -119.1770557846884 51 55 53
9806.343855061768 -14323.620593033304 -86.66806607536708 64 76 79
9336.654882319242 -13725.125828367398 -304.6448519091571 55 50 49
9522.530170728822 -13925.180081278539 -234.08725784152884 49 43 40
9760.568650433894 -14218.7560205657 -141.90347738371335 95 85 82
9350.54578263751 -14346.388353311184 -245.5004026972786 176 180 189
9519.062591585069 -14252.564473374903 -200.1142990402197 75 71 68
9581.896200731871 -13829.296969842395 -245.57895342652023 114 117 119
9638.287010258595 -13582.27477664072 -216.01580964683086 127 123 126
9238.506390453254 -14113.604003490142 -295.49474880832474 67 56 52
9586.685259291953 -13922.05304991074 -220.70827256509506 46 44 43
9328.180376406786 -14376.098156743159 -239.47515928536058 60 67 70
9758.243124053488 -14250.450732360514 -126.23958525382731 175 155 122
9690.919669228893 -14038.032440666095 -185.04813104485189 82 73 73
9153.831131266325 -13983.301654515213 -324.4208405690962 80 72 67
9357.47889908911 -14346.555998212734 -238.72309602895288 67 80 97
9827.835320159556 -14213.776074334215 -106.4989066481073 110 96 89
9666.64828485971 -13942.699887773433 -202.23130971160074 93 80 73
9119.685764588743 -13515.936199978514 -384.51101043998995 70 63 51
9478.196857551271 -13808.79795549084 -264.73703282933286 120 121 120
9564.735088744987 -13986.062007993978 -229.0946583490171 51 51 54
9901.194628598014 -14279.147255698646 -46.9481230618944 122 102 92
9649.743487878812 -14532.806943725624 -104.95720876869254 80 83 92
8886.23363226648 -13412.632982843175 -461.6235861685447 138 138 142
9511.547571920535 -14548.470317672985 -154.05187933452876 75 72 71
9199.35905561269 -14067.462003250637 -318.4931109529173 34 32 36
9597.380056391914 -14207.102142960879 -184.17134841133185 110 101 91
8852.084257446182 -13528.438055143693 -460.18421101105696 163 162 161
9439.247526280158 -14093.729049378306 -241.85989046157746 43 43 44
9116.556368208443 -13951.963950534704 -359.7206506975089 32 36 38
9431.649470098675 -14399.731736808671 -195.50282050182997 48 41 42
9744.167068903598 -14239.229645131398 -132.96479818264882 38 47 43
9673.10646643234 -14584.701116616285 -65.81623102476071 126 112 98
9902.05131724167 -14254.953589939709 -55.08274096221569 68 59 61
8707.3517107003 -13603.809055921076 -487.56674236962255 45 46 47
8355.161704948832 -14290.717992789543 -548.0278348641648 157 156 155
9574.117905674091 -13993.826251633076 -221.2625587751708 30 29 34
9530.164860521207 -14033.645146586663 -227.45211302590414 39 38 41
9445.182430920371 -13740.43486524505 -266.53092490291874 51 49 50
9041.177095565365 -13816.692790418521 -372.3110515897314 52 43 40
8792.970803037037 -13398.354702224944 -496.36831704579447 180 179 183
9471.921146327644 -14240.235785592831 -223.04289220692596 121 98 85
9688.945926443726 -14432.58240083027 -108.80880132856915 157 157 162
8987.462177144595 -13801.519689967818 -402.5424758963356 139 140 141
9422.296450284366 -14126.814759714896 -249.35223898295385 49 44 46
9574.661042150956 -13997.50760220984 -222.53533531913172 102 94 91
9666.54861909033 -14292.894312613218 -140.06907844591566 111 107 108
9340.216025270269 -14126.998940818065 -265.043600285857 148 148 151
9745.684859685969 -14243.103672897454 -138.41931603807322 87 95 99
9209.98878432692 -14019.166057416283 -314.1325795345424 17 35 46
9459.797736267852 -13747.35650450873 -259.9217069233923 148 148 146
9770.366004284288 -13577.247896012332 -174.55337824685958 112 104 100
9540.451619682543 -13979.864049023456 -232.87722384884813 49 49 50
9770.369315070822 -14448.575696272983 -66.26601063510955 97 69 74
9658.063025553087 -13967.798927589332 -201.85482941970025 172 170 169
9747.461018786225 -14258.546398992943 -127.72358666792344 113 108 90
9586.335968320376 -14372.814515988355 -150.07762143230315 70 75 79
9557.598537714297 -13905.297451027887 -236.41127195785137 103 98 93
9493.672948003205 -13953.188709561908 -239.57760324549747 83 70 60
9762.15755104786 -14417.3064171461 -84.11228870710374 128 113 112
9818.074601342196 -14252.461948433336 -99.35874715145523 128 126 127
9768.316472092092 -14224.557286330915 -132.27235592714976 38 43 52
9060.597681479863 -13868.730323212725 -368.71927404395905 55 50 47
9965.332000274753 -14230.261878627383 -37.735462540003766 60 60 64
9058.648697208831 -13460.677911395906 -404.3683423703114 181 177 179
9548.477309571294 -13725.156857990725 -256.7836119843111 134 135 133
9205.307953429465 -13835.164836460386 -345.57339096821374 91 94 96
9488.430540169247 -13846.126822959264 -257.75107004537034 83 73 67
9761.516924689753 -14452.395112524018 -70.3727832538417 103 73 76
8742.66972214272 -13470.402481280136 -489.6960511370669 76 64 55
9694.260458173838 -13935.642161347416 -190.3526935472214 70 67 67
7851.263142314453 -13844.235748303514 -691.1063671150879 140 139 135
9230.550495534251 -13972.178183785953 -324.53044280016474 118 117 114
9654.96706874833 -13947.383175017249 -203.49985787461054 158 158 157
9642.104537822825 -13944.14741153646 -205.0176088834701 154 150 149
8841.752532880233 -13240.159826979325 -463.99458120237534 93 79 72
9601.71930000121 -14439.193340252925 -149.70837367878144 60 70 79
9751.976526822185 -14471.255600828115 -64.76229589571392 170 170 174
8953.62259328975 -13686.86002478383 -406.71072670379596 98 88 83
9268.665559943374 -13872.974565367875 -333.85621484165296 122 122 122
9697.017058419453 -13941.539036657308 -185.5095725138081 167 165 165
9655.061851242097 -14475.649799295654 -112.31585012719823 80 85 95
9609.64246381722 -13849.902715234943 -226.2963414156731 82 71 61
9524.574292773887 -14539.501224812322 -155.0180966506034 129 112 98
9040.17679223023 -13903.8400680237 -383.2856977238333 62 61 64
9241.601267491837 -13882.184346780035 -327.9647398858402 53 55 59
9503.836075398727 -13812.875344398028 -262.6131665281698 136 130 124
9487.102259729896 -14547.501624381648 -168.94235514807968 83 80 74
9209.119877037594 -14097.735295386814 -317.1888418603718 55 56 60
9119.685764588743 -13515.936199978514 -384.51101043998995 70 63 51
9559.310961174127 -14060.963348650486 -215.25265480226952 93 97 106
9328.906204886864 -14214.05660769099 -254.2068209735054 143 138 135
9921.81480831694 -14251.292697570012 -46.528474582108245 80 75 78
9515.243939333059 -13878.235371356519 -238.60475499200612 125 126 123
9356.790451122564 -14345.276331552675 -241.8968550726033 175 181 191
9610.271166880046 -14261.522436692298 -163.72852574970892 80 76 75
9827.55445450506 -14251.988733487986 -90.19245470656911 189 186 178
9761.64982984258 -14387.766971865258 -82.82109533652623 145 136 129
9657.488214070245 -14463.92988411349 -113.36794326417622 166 168 171
9243.06398733512 -13581.333868093396 -338.3964977129927 82 75 62
9258.09345013345 -13653.289990153666 -344.0768374940306 166 169 175
9454.19422676551 -14304.490558223997 -219.15540291256318 70 76 83
9521.044178782726 -14751.91331847153 -95.7787669203686 184 184 187
9066.393366778322 -13877.203500971611 -378.74664787713505 55 58 66
9543.203983352014 -14028.73560561385 -227.1565570977496 125 113 100
9777.68634114263 -14477.767863014631 -56.5519474719047 133 125 122
9162.772991781645 -14030.594604974964 -330.4178482196763 33 27 34
8871.36952454425 -14080.985199651208 -407.95917422764103 212 214 218
9811.969824853086 -14352.328497519682 -70.12287115557797 115 131 141
9559.599289921642 -14470.21429960335 -164.31637926583196 172 174 173
9586.055737303963 -13973.648865572106 -228.53560342122756 89 91 89
9646.701329246538 -14186.56628555208 -175.9139320406275 88 85 73
9569.51392253741 -14505.237236414048 -143.52031092477674 145 137 132
9687.570575470016 -14418.514395071888 -105.54322114467448 142 135 130
9262.525569066682 -13962.440528563911 -313.2587720695325 50 43 43
9451.48743133603 -14024.06341349863 -238.4460455834328 185 182 178
9633.738896659814 -14253.87908207981 -160.71381198526635 180 180 182
9021.877795267923 -13825.783394173266 -396.13285122542146 69 73 77
9179.24902898694 -14028.27502951519 -320.38687172893873 73 68 71
9663.470009067783 -13972.888344160136 -200.3731872294951 130 126 121
9762.18689301286 -14447.229388316993 -74.10784790175839 176 173 170
9196.59222073433 -13529.967363525127 -359.06287618579444 82 73 59
9677.614147211909 -14592.080766263662 -59.20822208282356 115 110 98
9736.54086840706 -14287.249064023654 -138.01308864214877 138 139 147
9653.834064684466 -14136.016451428879 -190.76548609047344 162 162 162
9548.020993339805 -14007.7772185911 -227.35435359542012 119 121 121
9061.90087265673 -13586.469724657916 -395.30785858844723 79 69 61
9055.921801357574 -13893.678907583862 -378.06769153061117 139 142 147
9696.780230255918 -14142.592049398383 -177.24133852589392 107 98 95
9576.393862380051 -14474.465256946254 -158.56534078621206 57 62 71
9503.00742530027 -13854.45624601167 -249.91066628967192 68 59 55
9655.427640895585 -14229.403061435218 -173.3619240643971 54 54 56
9825.38676523523 -14211.35846574586 -111.47593561462232 67 63 63
9605.42504914349 -14471.6401865405 -132.66390108742385 86 93 99
9425.19610982226 -14046.344440807829 -255.9174172017047 58 51 53
9673.390777415081 -14160.24526705959 -187.5057596282751 121 123 127
9582.463747100037 -13806.985130096546 -243.90647980940383 100 101 95
9767.158942353135 -13582.179068307796 -175.50490566127203 118 110 106
9178.031076612118 -14010.795393751127 -337.6138041872332 179 182 185
9133.473701886043 -13979.201837578516 -356.1280996725905 47 51 56
9642.18446782177 -13945.510040206358 -209.03751886147995 163 160 159
9183.37383008411 -14040.845875388512 -323.4330477860758 50 45 46
9543.403947512654 -14548.799700427753 -133.35768652921263 114 111 106
9891.990727805669 -14319.515676706906 -50.14061356735282 118 96 84
9556.830493805386 -13571.987708188946 -234.42534498437084 138 137 137
9198.865875407375 -13830.864542858935 -338.2476044355092 59 58 64
8937.42577233574 -13527.63713067947 -433.0003347659484 68 62 53
9329.292583377744 -13829.530306581688 -306.88990314383955 147 148 150
9354.922549766381 -14354.2005377912 -236.974807827491 160 158 159
9646.276004427884 -13789.593844207431 -239.3443120861623 88 91 95
9349.812682581585 -13836.9570311195 -294.9255240679032 128 128 131
9483.767567512603 -14022.66998541416 -240.94890447858944 97 81 72
9498.812206882392 -14339.015462999289 -195.55799483954516 67 82 92
9213.670953966453 -13852.169179515098 -343.8942551171591 107 108 111
9429.757120274417 -14392.983594258701 -195.88804939038715 50 47 48
9114.022570272631 -13932.131414612732 -358.39915085184526 47 48 53
9506.980053147598 -14049.901772334275 -235.33589992384017 80 62 57
9524.70166708846 -14005.901944548717 -230.69899388820238 63 57 57
9186.565873153108 -14028.992659389 -309.80107562581617 61 55 51
9547.632123601104 -14414.338306912889 -152.46983527478784 153 139 131
9577.308786616028 -14524.327304713357 -131.0366271204555 55 72 81
9957.286127046502 -14257.55080308792 -37.15203936159186 42 40 45
9263.636782658103 -13997.6308319472 -303.136416693672 99 98 100
9365.975248926887 -14039.230473500911 -271.07103795648044 148 146 146
9225.443640189926 -13879.99129766027 -339.41910254166595 44 47 53
9374.466902266962 -13687.870824102005 -291.5590233888384 41 39 42
9702.950163916874 -14253.873010187119 -140.41210092662752 38 43 51
9632.317394236663 -14534.020622359776 -105.59592574365475 62 63 66
8819.12710275902 -13564.749946502032 -461.66280378437995 86 80 78
9464.205052346166 -14037.388533148327 -239.55382985354575 96 87 81
9289.98787856805 -14065.981678360207 -290.1276200383855 29 35 40
9755.382305047566 -14418.54128634774 -77.85479063975026 137 133 130
9178.98993687896 -14022.61681742281 -319.9521990506121 46 45 49
9302.221730757665 -14069.060197836656 -282.56534630991206 131 137 141
8917.219499544408 -13367.697242631297 -446.86725279157395 108 104 111
9520.736278153121 -13889.692916844266 -238.21869460596943 78 71 66
9961.943817376688 -14207.340859804695 -50.856094395962295 45 51 58
9169.44932374837 -14050.998861016215 -323.3925379873652 115 117 121
8622.328144806563 -13311.31544112732 -541.5088537184373 33 30 31
9492.558882176421 -14000.285120348062 -230.9770870411491 61 55 51
9039.465353283991 -13901.745515443572 -385.95168271221684 157 163 168
9751.749414358826 -14250.801211977456 -128.57572596615515 38 44 43
9559.310961174127 -14060.963348650486 -215.25265480226952 93 97 106
9178.62734659011 -13660.536885602362 -352.984433097673 101 88 82
9647.924675977429 -14454.995480170739 -115.2088395704278 171 159 145
9335.355068123783 -13918.246409822228 -286.0622750811008 169 168 167
9690.263723150894 -14122.80557143423 -186.56815164265169 51 45 48
9464.300839772652 -14415.81224306877 -178.41064651757713 57 55 60
9792.40454807234 -14243.743722018355 -117.7023903103513 59 59 62
8928.797867259877 -13397.677074790206 -454.14564475869423 170 172 172
