ply
format ascii 1.0
element vertex 710
property float x
property float y
property float z
property uchar diffuse_red
property uchar diffuse_green
property uchar diffuse_blue
end_header
9661.059787186596 -14277.238690974993 -160.35109183593408 105 97 84
9735.018120738767 -14268.30101500037 -141.11938142332843 128 127 126
8747.560711634149 -13587.623154716228 -511.1687218466413 124 124 123
9826.240020476363 -14228.982221359924 -113.76370254917474 96 84 80
9514.20450491134 -14468.704420309372 -161.6760358231564 102 89 82
9820.667181123636 -14345.788038271037 -83.01422886433012 139 115 103
8936.297988926015 -13760.705175060035 -448.84768741157103 25 28 30
9597.448579498738 -14594.595018356984 -108.68921387773204 105 92 82
9566.304035610343 -13986.534196333792 -243.64522280140636 93 91 87
8281.646569361841 -13615.388107566752 -650.9246371612286 176 177 179
9681.949140421386 -14117.657126468628 -202.93806713655331 80 78 80
8992.200418899196 -13838.181661187678 -424.26818636341443 33 34 36
9565.016370813511 -14079.325638628798 -236.29609315387606 44 43 43
8492.998219909341 -13665.902755603576 -590.466239471003 176 178 182
9307.802434047993 -13714.753258598754 -334.52957269688875 42 42 42
9658.99139114692 -14166.409822932297 -197.5892116277608 160 168 171
8689.289118577359 -13621.181009770888 -518.280736684431 30 30 32
9808.521914863944 -14254.12053304315 -113.85847043386869 42 45 44
9528.1166135502 -14061.975183227458 -243.0830981254614 25 26 29
9543.34606013576 -14322.429209597714 -201.62327638933888 59 62 70
9511.926317731039 -14349.807350546516 -205.29365694265513 160 162 161
9516.434288485858 -14042.80850066383 -251.86714775950463 39 36 36
9353.926781833468 -14066.35535457626 -292.84151861216674 127 127 127
9728.375406751024 -14234.85438341447 -188.50571458524783 52 51 55
9787.306409951152 -14505.147226059085 -53.3248350699305 139 137 132
9906.700664961389 -14193.465435349473 -82.06879342446473 175 174 172
9790.429471526442 -14382.24930278568 -79.35158564802715 78 71 69
9644.997104265709 -14216.768342961828 -195.81226983165251 105 104 104
8975.305111353946 -13523.61332301465 -453.9056548156993 60 63 63
9572.51927518736 -14114.070387348223 -221.71444716077016 27 31 31
9558.124638529087 -13983.923754939307 -241.15717726567414 53 51 50
9558.99834772672 -13929.594556241016 -254.580343404028 33 34 35
9716.734231983446 -14199.044420986233 -169.49717392243244 149 142 136
9596.513922769122 -14137.649814611523 -220.59455114025658 33 41 50
9167.961521961177 -14068.944390883933 -344.92707711454864 25 22 24
9857.350443861995 -14302.754989258374 -86.27599499545393 92 84 81
9638.884613058919 -14308.062967692762 -157.4013760736416 136 113 99
9099.186407832567 -13982.00229426774 -381.4501033877317 34 38 40
9520.476869472024 -14278.649579515713 -210.21097985311684 81 77 74
9324.589838962422 -13658.838959154858 -338.28384827327744 31 31 27
9212.46094820705 -13577.791950107534 -381.6148852668886 54 49 41
9664.161758464945 -13902.798775502839 -219.77978402808787 128 126 123
9630.103501096228 -14136.286662387856 -205.36876418371415 31 32 33
9298.043513727787 -14259.431168445852 -275.64363731104777 67 61 60
9549.334090596698 -14403.13669399981 -165.57008094114906 100 100 105
9153.724029320527 -14030.581108271315 -345.91267047449725 176 175 171
9636.284308195476 -14134.20167976534 -208.18494962306653 47 46 42
9687.883450418496 -14452.305628684247 -114.64976461350463 165 154 145
9373.620458053238 -14396.610810337292 -237.03138903505146 70 66 65
9126.560448558268 -13995.013581288522 -373.8943383101244 51 52 52
9108.70747242305 -13991.125659253656 -372.3685756130089 20 21 25
9781.631094367944 -14294.355378551325 -110.33102885705138 131 127 125
9743.70342703156 -14506.28560132909 -78.92744597939152 34 41 46
9234.343756416214 -14049.81569306074 -337.0799487619854 81 82 82
9672.702523230524 -14504.170872742943 -104.39886163852549 34 38 42
9427.168260380287 -14090.073598926061 -266.0455875207946 169 168 163
9764.377135512192 -14265.317377022506 -138.00934271468213 175 157 121
9223.58570431297 -13982.114969148923 -340.2897974492341 36 36 39
9732.40017239401 -14572.235480721729 -66.50143386140994 106 107 106
9765.926325079443 -14377.683588583004 -91.80704743753036 74 73 77
9358.0642117214 -14180.82609655434 -273.3755834293048 134 133 133
9736.742648783935 -14506.099734666182 -80.54687037248192 177 177 178
9343.981882561238 -14283.643589853109 -268.26789309406286 40 40 49
9118.710279179633 -13977.982248531905 -376.6055304083403 38 38 40
9582.930441007813 -13870.676843868898 -253.92675236347287 122 121 107
9635.75812421881 -13912.578901848941 -229.26761691116891 165 163 164
9032.059608196083 -13942.84501203265 -410.0205814212276 157 163 168
9157.309560015687 -13594.505224426253 -398.62488850569497 56 53 44
9261.574740920161 -13910.67422186179 -364.4208176762684 92 88 87
9507.792395794499 -14082.461053698993 -249.1347843692556 80 62 57
9737.32950013296 -14336.013884134385 -116.64282182693711 169 169 167
9479.652250850928 -14437.784903694252 -189.34094123131817 40 49 55
9419.035139007 -14383.233718556514 -219.01184164532435 89 84 79
9536.902770652427 -13989.178134295473 -244.83111483782534 105 87 80
9426.038004022788 -14317.704691189116 -240.7027491618475 71 78 89
9737.806486005866 -14498.695031471223 -80.10132745065577 45 47 56
9540.423197523645 -14079.822634785494 -238.23216682067476 71 65 54
8955.739453399487 -13909.140122072033 -439.2179528568378 58 53 50
9708.903520525551 -14465.961333983372 -109.71864129937622 45 53 63
8723.479967079866 -13541.506457516625 -512.4968911869187 60 52 47
9517.872468406726 -14585.449883525262 -160.81250474870507 60 59 56
9219.776974536471 -13569.664575304805 -382.2394717856749 62 53 48
9256.768387274185 -14018.071211979212 -331.5778254398871 31 28 22
9398.576577046026 -14402.28962901243 -221.0137505866215 154 153 150
9114.704481255843 -13994.76415604897 -369.6109843079505 24 24 29
9416.90559153311 -14084.541347228313 -267.30825561886525 182 179 172
9432.261849411989 -14416.432284162745 -219.1054468339633 118 125 133
9615.277489463208 -14446.317501541998 -163.721740056706 186 191 192
9770.278383535435 -14269.892583743695 -134.12409608026965 73 79 82
9670.95240500685 -13628.067977860706 -225.8253937556923 41 36 35
9181.545199766693 -14025.101866525745 -354.67973945975154 52 47 48
9231.04671426109 -14160.17114798522 -313.13793686737233 54 45 43
9765.65598402819 -14236.124863856125 -142.33607858423076 48 48 50
8570.115913877915 -13997.77230123965 -520.5982643057081 127 127 121
9710.870800135322 -14500.330427252424 -94.63639269033789 48 51 60
9259.324534591828 -14213.871903112862 -308.9488165988801 77 78 82
9664.185408848054 -13977.374984862689 -215.56390229970202 159 156 155
9187.391749157785 -13737.65426127451 -370.7951429542201 31 34 36
9790.429471526442 -14382.24930278568 -79.35158564802715 78 71 69
9733.814160304571 -14079.218855729227 -184.78084038225086 68 58 54
9689.699099121219 -14129.686993100404 -195.13711971606907 71 69 71
9044.723909606124 -13497.655241361812 -436.1700255956972 164 163 165
9583.578640122787 -14505.619176661921 -165.3793522167383 53 55 59
8943.247913601104 -13462.904899112098 -470.2711262257077 126 131 136
9171.426153111728 -13899.675257298539 -376.6867654214896 35 36 34
9480.737558750558 -13867.823006676725 -281.2357521094071 82 72 65
9622.895211188226 -14066.180911675021 -216.85964213684676 141 134 130
9268.281993732196 -13542.245287368281 -362.4772276250496 56 52 49
9484.572674206926 -13850.900857444429 -284.78127608020276 85 72 61
9621.652490935254 -13954.003678882527 -226.64480636402988 72 66 60
9945.07036663898 -14245.652806038433 -56.59653861874354 66 65 65
9480.388275631012 -14148.378980908528 -239.0290361934575 68 58 54
9404.963532655122 -13536.447640364935 -316.5322597355307 33 30 30
9729.684843221501 -14571.714764074422 -64.73834840908651 143 144 149
6749.798881197617 -14212.372707497398 -999.7355363665059 112 114 109
9687.359372163764 -14119.68111861982 -198.19881990643918 63 63 67
9664.780382742296 -14565.506283067294 -105.45254656775747 78 88 94
8714.784119482292 -13456.976748633033 -533.3435534961246 64 54 44
9179.744048119135 -14075.066858123584 -348.7327110204672 66 66 70
8968.569404713173 -13909.69499557652 -437.7241313111463 102 89 77
9371.984482567068 -14376.734862791338 -246.25820449556446 175 181 191
9258.553958312688 -13556.387673430818 -368.91292243669113 152 153 156
8770.339196047922 -13447.380453707656 -543.3964524402375 69 58 45
9661.466112450233 -13942.670189271154 -218.81940815092509 170 170 168
9077.112004379915 -13973.032688310192 -386.8784630355907 19 25 31
9735.433519124774 -14579.008807250657 -62.63545814659204 174 173 166
9547.602431874342 -13968.704274285155 -245.8911086383625 39 36 42
9142.98058233999 -13820.303949811645 -385.9276408531693 38 37 39
9185.235705521945 -14129.467146186686 -332.45988160612114 44 41 43
9237.42346579384 -13471.501418898457 -372.9652652423835 38 38 38
9807.215547360895 -14252.097710113101 -114.07001884688461 152 135 108
9014.321545245928 -13926.030908388537 -433.9808679072742 47 46 51
9341.939882125942 -14131.921458324026 -285.05829993199995 73 65 57
9561.028074813139 -14506.080766996625 -166.2197657903373 125 120 118
9451.175176783845 -14030.582670988702 -265.13266938442416 178 174 170
8869.89264515968 -13566.180901641112 -486.88583682346365 160 161 162
8887.39947366379 -13463.949861459878 -488.80426778771454 127 127 131
9675.4810189165 -14564.127092544193 -98.12449047248725 165 170 172
9820.667181123636 -14345.788038271037 -83.01422886433012 139 115 103
9302.308169796155 -14105.634820410178 -298.3499285247773 131 137 141
9393.220081115709 -13779.247501706897 -309.7081755132203 55 51 50
9681.091550314617 -14021.179322694865 -205.1357481131908 158 159 160
9432.376296916538 -13922.981299471921 -284.31583635832317 164 164 162
9403.740255569683 -14088.132756447088 -268.45965150632503 82 73 68
9761.231723648885 -14300.63295810831 -124.36455581896807 55 60 69
9685.838246072282 -14129.8999034187 -202.8278419664109 123 103 92
8918.40407666903 -13373.224836887368 -480.1114131782629 146 148 149
9188.111405104008 -14132.841373984791 -330.5013526369722 35 37 37
9663.892007211607 -14564.036312905399 -106.97391493965877 101 108 111
9168.834927240645 -14074.97394075376 -344.93952692397977 126 125 131
9645.035585998889 -14525.745165099912 -111.59371763763934 162 148 137
9318.561869185702 -13561.646933496828 -349.3688858718874 120 128 137
9049.529644434075 -13924.764605654793 -398.76222775219776 119 123 123
9630.450456395907 -13626.056484413535 -238.0562096026241 35 36 36
9772.366593536022 -13842.910477723963 -208.0960053489505 34 34 39
9607.725794090102 -14030.26183968514 -227.88885783720792 150 152 159
9256.826993214934 -13953.175422126005 -326.3763130401664 114 112 112
9664.163381275115 -14269.403924931625 -166.93937941625524 116 118 121
9490.07319722688 -14467.053255003591 -164.08639889713362 65 60 56
9559.740992914261 -13833.519470511259 -269.92415570263177 27 28 41
9731.06419085768 -14568.82893633309 -69.84290632948985 119 118 120
9214.923556671936 -14161.078741881161 -317.55589881820725 53 48 45
9682.211130531805 -14467.579437164442 -110.46715540311983 50 42 50
9204.540959211508 -14124.648541989314 -329.7624059240454 32 39 45
9558.70602288237 -14189.135434787828 -215.0058283734687 80 67 63
9284.78436690075 -13945.783068653096 -321.4435116042473 26 27 28
8578.921995009245 -13365.738175356453 -585.8169467107537 45 45 47
9374.372659432081 -14184.516680216053 -276.81929062739545 92 94 95
9499.104005474115 -13860.259804626976 -284.15962600195525 105 105 110
9797.351353839511 -14249.210626589509 -120.87717319238975 84 80 78
9577.32217656885 -14506.058681383627 -166.82941902640817 69 71 76
9532.840939059364 -14067.072234456105 -237.73929324415315 55 49 46
8941.253403718003 -13527.377867926181 -460.37612590564436 166 164 163
9664.995058091828 -14170.621867472848 -196.15452454073534 125 128 132
8852.52131621387 -13597.593571622281 -484.43113959616835 122 127 132
8872.929030891359 -13246.775628155934 -494.36562854303224 70 62 60
9733.471671408886 -13794.978561957716 -218.04307115090978 163 164 170
9685.493535740497 -14172.513836395943 -189.87008498632312 97 95 94
9695.665092329926 -14065.560334337948 -194.7598858006596 82 73 73
9551.251696298243 -13982.652130023398 -245.89139187528662 35 38 39
9519.536401773508 -14071.710686721464 -245.7880239626469 46 45 44
9558.99834772672 -13929.594556241016 -254.580343404028 33 34 35
8934.508117547486 -13776.146931920652 -453.5976493707862 40 34 34
9227.69024080298 -14170.587751657287 -325.5678692338922 57 63 63
9871.094992111983 -14270.953605275427 -83.50074098459201 79 75 76
9180.518317044165 -13923.599226054539 -368.18645953182414 86 88 88
9845.650575248601 -14382.963339437296 -65.1473461314914 72 71 71
9619.358071610326 -14492.808288316308 -139.72198916908755 123 113 93
9570.585097193522 -13831.760584864815 -269.15260231446837 105 109 106
9077.986348597451 -13579.116205769375 -417.81378484684564 57 52 45
9561.292439300496 -14502.652921845767 -170.74857479048072 68 78 73
9666.927528575343 -14560.570008413588 -105.78914303358707 121 117 117
9665.440667013554 -14570.935001218333 -90.77237048102549 153 154 150
9620.729817609454 -13654.440476611704 -237.84157082266174 49 41 38
9583.981538380302 -14538.628816578406 -145.43563182241815 134 122 110
9445.527965017449 -14025.656447405203 -268.25145758477163 182 181 176
9714.716233813617 -14506.141672243064 -95.0526117628644 141 141 144
9272.741806577667 -14239.803439911293 -293.8521017323628 136 138 139
9766.061373846194 -14266.790762159659 -135.08204469576305 68 76 88
9216.626937690393 -14109.565953461997 -332.40007837772583 52 57 63
9564.976338841516 -14179.648237191932 -215.05464091314735 47 41 42
9504.783681425693 -13892.05583172268 -261.5838710288622 143 143 144
9699.541063851042 -14371.088563943962 -129.70274840431946 64 60 57
9638.5161279896 -14441.4064659484 -152.83770648350284 121 127 132
9983.400311950456 -14221.02621448067 -46.15477845567239 56 58 63
9203.705719585172 -14130.276677016971 -319.0640369137565 43 38 38
9517.622601181558 -14051.156408119185 -255.24405219703527 64 65 69
9673.045949513411 -14576.777301742886 -89.65147032002493 113 114 116
9416.645110913283 -14319.469386862133 -247.46514939165436 103 106 110
9112.577351371316 -13987.553413083764 -379.3935271550947 110 112 117
9730.7009361073 -14549.463966305919 -65.15880754286029 75 68 65
9621.536037527669 -14581.139523822414 -107.5849552586553 87 82 64
9632.371491896401 -14090.539005220602 -216.2271035226245 101 102 104
9019.43085424065 -13933.49651150853 -402.27407465509765 85 82 78
9586.442306427587 -13989.963877461676 -240.21347020114564 59 58 64
9383.2541262982 -13929.037371258055 -293.8741014424123 167 167 165
9750.141384499682 -14332.441965632841 -111.92531396150983 76 68 62
9223.99204690989 -13974.015403503303 -336.17345304372435 95 90 87
9557.210278611688 -14058.924804415192 -239.0531659901467 52 48 46
9500.116143606576 -14365.696688106265 -206.10340828537505 144 147 149
9329.805064335666 -13544.700411822078 -342.4848678796081 42 39 39
9487.486166925353 -14064.071719122918 -254.09142555735409 94 78 70
9347.725068121974 -14169.000252022937 -276.9601757213933 37 37 39
9600.445788373874 -14065.739811334868 -219.7262855913737 104 103 101
9511.4251428645 -14026.529843195209 -252.08347429156152 61 53 49
9512.639526286623 -14585.906401067232 -160.81387851682985 122 112 104
8881.949837222097 -13689.1300308161 -464.83918547432336 72 71 71
9580.426767834573 -13907.350284813196 -249.40700789483918 33 34 35
9607.527074915113 -14257.607999996442 -182.67290459849372 70 66 65
9128.150229739502 -13540.604264728267 -409.6425340376832 68 54 45
9724.207780100427 -14048.587193559431 -191.38206972398652 43 39 40
9569.38247798533 -14586.600197760406 -129.3555094327708 104 101 95
9656.514306296489 -14563.226081080453 -111.40453577839484 74 80 84
9591.68471258201 -14558.230669601578 -132.71081695146876 40 59 66
9169.082962057304 -14081.353549847327 -337.2073118119549 33 33 34
9535.013931204721 -14252.910265998284 -213.46578379381188 99 93 90
9413.33038867741 -14405.913339421479 -223.08253895425213 179 189 195
9763.96385190113 -14267.58622166102 -130.52931726751135 36 44 42
9537.008821467682 -14102.270491510804 -233.50994834987367 20 25 33
9527.920883774734 -14580.875599828081 -150.80376354419866 116 113 106
8818.816717572343 -13749.965832257221 -467.6951965884789 33 37 36
9235.301879586345 -13918.950609953052 -349.738884564931 53 55 59
8837.59646765216 -13479.491567988385 -494.4023041640079 34 34 37
9198.87356563961 -14106.191652985259 -335.6998964015801 34 32 36
9643.471614900913 -14564.622191557053 -112.58611885498881 106 107 111
9284.78436690075 -13945.783068653096 -321.44351160424804 26 27 28
9570.544351727194 -14414.287560594492 -157.83050077915098 125 114 92
9230.033785774036 -14167.556898574156 -308.5757640247082 56 52 48
9126.425222176636 -14004.215216854733 -358.5833834938538 107 106 106
9270.212782160257 -14049.42928394512 -321.14732458495547 52 51 56
9615.001552656995 -14057.964892495074 -234.64870506962362 109 112 119
9372.1939872208 -14073.94362906393 -282.8800771813153 189 187 178
9692.160491074988 -14315.251377074368 -136.04479173172302 146 142 145
9841.633907246327 -14212.403246106736 -118.40620632149219 122 102 92
9777.766872571281 -14238.021329163135 -136.42267418633733 44 44 49
9251.718571589037 -13660.081419670933 -357.5982094677672 74 66 49
9711.627426145718 -14504.152367633831 -92.67760197871945 84 85 94
9585.622670270053 -13887.89659776457 -250.00937238324167 149 133 81
9589.029625599138 -13865.483422835698 -256.7160521470245 57 53 49
9730.024322910878 -14087.769307268027 -184.4508051823617 123 119 117
9607.77121033994 -14249.787545015784 -188.90314952231248 59 56 53
9138.739449873323 -13942.71181713021 -371.2306868790984 111 101 89
9423.749205965922 -14093.795303084917 -263.2867723482672 72 65 61
9014.91180801649 -13939.079896812269 -420.0936148943033 157 165 171
9254.814545515137 -13532.299840869753 -370.85929668363053 165 167 171
9578.607262057527 -14051.005902579165 -231.9157309273976 99 91 73
9672.99778720406 -14211.785765866216 -177.92230175712425 158 153 148
9499.79300104681 -14028.74060078082 -257.7312754946746 34 30 28
9709.063518711066 -13699.947273453174 -216.2435045009616 37 35 35
9548.401417007655 -14039.122172113524 -241.41732678118498 119 121 121
9375.864483057003 -14380.32958874008 -243.25437855354713 174 180 188
9628.581243122408 -14323.147413262866 -157.82118276255864 115 96 87
9546.700950735216 -13883.71299451541 -264.96065093946464 148 144 139
9911.180055968822 -14342.244688478979 -40.83373730967253 44 46 44
9433.761575702018 -14238.305746787022 -239.77214335012826 31 29 34
9567.693860067113 -14438.178595444271 -150.85917250679296 153 139 131
9670.387942791118 -14174.30690391434 -195.03498894162422 138 139 144
9518.075391329658 -13956.851852613443 -251.806476227546 49 43 40
9570.386443200985 -13609.878198210386 -254.94409634944816 53 43 37
9147.63210661965 -14049.315297217843 -353.1241421938387 44 37 28
9534.236255499844 -13957.48441044298 -253.58526359845308 52 52 56
9635.211986437316 -14073.803135244303 -219.54050128403188 27 27 30
9645.417837043055 -13650.082558197626 -232.44986225640415 43 40 39
9346.728889710446 -14359.188170223291 -252.64772377437617 81 72 70
9668.149643042037 -14564.784403480022 -100.46636182930452 173 178 184
9470.409351519209 -14031.85293191755 -256.38681083289174 180 177 171
9295.667022583511 -14085.364150093736 -302.243872164574 95 99 100
9612.608088290572 -14405.556534808224 -144.50686047362709 85 82 68
8766.220877165879 -13530.027896924748 -514.1380387683928 62 54 52
9406.194529341605 -14405.470513312952 -219.61296319955326 31 36 41
9537.566298290401 -13835.841448009796 -273.0442958463368 92 93 95
9435.1051073392 -14241.089397248026 -241.5749641031984 54 46 47
9639.916181889812 -14567.76433228882 -110.19394287709487 61 66 75
9848.244613904993 -13655.925928552122 -171.50920200211362 122 122 120
9668.800750084298 -14293.184505167967 -156.03866509999236 64 64 62
9671.455828821592 -14018.009888056593 -209.98006224028302 164 164 161
9748.877450235545 -13587.460599326996 -197.18044734008515 48 42 39
9363.545678249122 -14043.321785713411 -287.7622962970294 127 125 125
9595.560195467631 -14506.107254365508 -159.60687978869197 110 114 116
9732.40017239401 -14572.235480721729 -66.50143386140994 106 107 106
9660.572439919864 -13939.245866657473 -219.66891600258276 100 91 85
9038.254060353669 -13734.27706708144 -415.5699361301509 56 52 41
8758.407881012045 -13472.118442107105 -517.973206038276 65 56 51
9026.814737608545 -13902.86867947284 -425.8043414983468 70 62 56
9597.755272134518 -14396.517663154847 -155.57850891422098 39 39 42
9591.68471258201 -14558.230669601578 -132.71081695146876 40 59 66
9353.22054233815 -14161.310307021733 -280.74740854825853 121 120 121
9434.97861719874 -14023.271346035692 -265.4379520093298 175 173 170
9706.55290073168 -14284.965318714972 -145.63645185080685 160 154 147
9807.550533777743 -14283.90963227354 -109.9636085069824 137 141 144
9547.344155239878 -13991.872389489052 -248.12989932996646 49 46 45
9658.932122801447 -14016.779677545626 -211.90809763212113 145 144 143
9608.492003044334 -14398.5992116158 -146.45288685105146 47 44 47
9620.745429569251 -14436.395890923628 -170.12149845163898 74 66 66
9949.742639867838 -14255.66494388379 -48.732239968932205 123 112 93
8702.318623108984 -13649.516663897288 -516.5460230466401 37 38 40
9585.191027858204 -13993.935900948765 -246.01547578454804 98 86 83
9600.619860714269 -13971.402289909938 -234.36374327292938 37 35 39
9592.208274346069 -13893.093581253064 -246.2256676072123 126 109 72
9877.94879511444 -14360.228130665137 -58.45545418108741 77 74 74
9764.2304665776 -14439.701316647686 -82.386542337761 158 152 147
9499.56802749581 -14571.260952374223 -175.81658461881668 88 86 87
9288.45609841959 -13977.409573751547 -330.0153437428334 106 106 108
8533.567631583688 -13430.014311051715 -577.4288342669045 177 179 182
9531.513477610522 -14065.283928475854 -240.8084320770262 39 38 41
9529.15734617268 -14221.465737491899 -226.26844794800238 86 72 64
9499.029474686475 -14567.702059889614 -190.37420124814176 132 130 124
9558.10084612997 -14440.289845127001 -154.9076561504612 160 144 133
9666.419802224693 -14615.963941771872 -70.7540232063399 91 97 100
9681.339867974142 -14199.347505040338 -187.8190781526287 70 80 88
9676.168055289561 -14467.404000880122 -114.44003282440826 174 164 152
9814.300438621438 -14292.614309262974 -97.43444164585847 38 41 45
9167.430502272597 -13765.306840602827 -384.13335502302255 68 33 31
9789.901829118082 -14474.586718586941 -61.965131665634836 104 78 79
9754.227629036126 -14281.16925783698 -132.01610775565626 118 113 111
9335.277155981217 -13829.163759501309 -328.3002804849683 38 42 42
9992.90185160437 -14228.725347932064 -36.0646916548681 153 148 144
9279.22173076046 -13958.092030602571 -324.7133861220595 22 23 25
9398.269235204809 -14388.060810915633 -235.26028860980657 66 85 102
9370.488170260898 -14385.45535030986 -241.0233679688925 160 158 159
9346.125226023265 -14310.484021031729 -253.58599912277077 53 49 48
9517.211896449548 -13937.267000908712 -255.07525116028083 135 132 131
9806.653407873478 -14283.7270777014 -103.95365673642425 73 83 85
8368.48919405622 -14352.575618718574 -564.2856446957963 206 206 211
9256.271752756005 -14025.425466348348 -326.59372437397565 74 73 74
9713.342551587944 -14502.041898396456 -100.55544691219765 143 143 145
9145.232550991812 -14105.93336308641 -349.24609789929355 33 32 34
9217.517410093478 -14179.57094964161 -318.79860083797695 165 166 172
9198.94089099043 -13737.517991494627 -376.84241966379255 132 136 139
9572.232872114088 -14033.786613223312 -240.8561834677614 92 124 182
9483.123401223611 -14060.55409367365 -247.7091572751968 174 170 166
8956.05361299618 -13723.463172439784 -435.86622818464343 48 43 39
9514.59943345064 -14057.70383402048 -250.38457952243195 64 55 54
9523.151294830945 -14206.496974184074 -223.837831750414 87 75 73
9669.827034779455 -14489.493676528331 -113.6095115775547 171 155 139
9540.326452192761 -14575.210928115717 -154.34660452338088 74 71 71
9765.616786477454 -13570.529380733498 -195.66737711681327 32 36 38
9594.025341965726 -14240.188392397418 -200.5227968106677 72 62 65
9361.893142557754 -14194.147283773304 -269.5615314447313 31 33 42
9232.14193969706 -14135.553075881386 -313.49684222957427 109 99 82
9648.478136213154 -14281.939528151455 -162.5294707386695 82 82 87
9931.882082264203 -14289.622616070508 -41.33160546601746 127 108 97
9537.772848132347 -14057.94120139755 -242.1290749334516 69 69 67
9547.614204386724 -14438.026192825286 -163.2351050235068 64 69 58
9549.3340905967 -14403.136693999808 -165.57008094114812 100 100 105
9763.438174502442 -14265.406582894862 -135.3304160238619 166 149 119
9309.811359143047 -13653.8001428786 -342.29773846407164 68 61 49
9279.21859442453 -13621.287824246749 -356.41403294366705 104 103 103
9172.674027939218 -14040.720885800225 -357.15178530233914 159 159 161
9191.940139855615 -13583.9837332112 -389.04323238980254 153 154 158
8985.768856673209 -13824.528800720205 -421.3983566898641 43 41 44
9049.754241953366 -13520.290720610108 -435.17876018227827 165 163 164
9218.39754395781 -14050.748275238388 -329.33469679905363 106 103 103
9731.478757175495 -14235.044552985133 -153.27560340454525 149 151 150
9813.609263885304 -14281.119102694214 -96.87552113134555 58 54 59
9510.601807938407 -14582.244154595937 -165.58573831790977 74 73 70
9678.951765662225 -14024.016977939675 -209.4134395564652 90 82 81
9794.59157065505 -14282.698186158566 -108.55489934737035 78 74 73
9108.017375732607 -13995.911154195317 -369.7748668039237 53 49 45
9790.560188959615 -14445.641537066713 -72.75307113651753 158 159 159
9470.300130724372 -13853.399608301914 -290.08316801185583 82 65 57
9591.786210888617 -14122.481389747263 -219.39229829818828 35 36 36
9517.9643536769 -14366.199801731505 -192.0074057139752 111 115 121
9540.466898667468 -13860.458961763965 -276.6980729983904 98 85 77
9485.399283644156 -14041.608562154077 -255.78659767903082 108 88 78
9491.969882883443 -14103.23882074415 -244.65172207080866 90 74 60
9727.042328479576 -14512.032343743282 -83.29934988036999 102 102 99
9771.197318141876 -14271.526958747747 -125.32339979391357 37 40 37
9509.742768482654 -13944.370800416104 -258.8910123385825 150 140 133
9141.691990286203 -13428.100161066093 -402.90723637877204 19 21 26
9512.70242063799 -13867.849168776547 -260.36560900482044 42 37 38
9246.779498605398 -14205.381851128743 -307.3742349571344 37 38 45
9542.306301175819 -14318.989969176824 -196.1905462970076 50 55 64
9768.140726508183 -14268.170271140616 -134.8636562567053 172 162 146
9595.49764874871 -14755.592065418436 -74.25188135207763 177 176 172
9785.787328008078 -14237.841409119426 -131.532364291901 74 72 74
9757.616677031536 -14262.979495237634 -134.63363405853198 34 38 38
9150.6007236667 -14028.222543056932 -354.2897373867118 43 47 48
9575.932500102517 -13836.33858218984 -268.2080944271112 53 47 49
9747.814409704153 -14329.81391826334 -114.18646343040643 63 56 51
9528.535996133203 -14005.330497326942 -251.61260890694533 82 78 65
9713.7812467499 -14441.482440959031 -103.9079990768421 61 61 64
9005.876258251956 -13807.371671996503 -421.40500237717663 85 76 72
9198.87356563961 -14106.191652985259 -335.6998964015801 34 32 36
9706.413130262703 -14084.63789229106 -190.3487356760493 90 73 65
9507.614634922109 -14576.035570046726 -173.53175176938655 67 65 66
9645.130081158439 -14601.518758587892 -87.36801873761674 61 61 62
8972.508053490246 -13587.070723434037 -452.20163489769124 81 83 87
9107.49375616674 -13972.57490690217 -367.06136367662384 38 38 39
9691.596689968059 -14190.318968315632 -187.72695487546235 142 151 158
9646.648827711188 -14444.167346188435 -147.75685203306386 154 161 170
9375.864483057003 -14380.32958874008 -243.25437855354713 174 180 188
9688.351185412525 -14051.550051837577 -198.548478648869 166 164 165
9081.398090340395 -13749.786595154716 -398.5732405939181 46 45 44
9498.192052219525 -14140.129517557318 -236.15144275430433 65 54 50
9252.648041399867 -13569.96329355913 -370.1405842497125 173 174 174
9102.563913289863 -13645.145125161753 -408.6829499742917 164 164 165
9180.374312666741 -14082.774426593518 -334.7141164585241 60 60 55
9600.05756074356 -14387.449770924728 -167.0302998242247 150 146 147
8962.31441642204 -14088.857308507471 -404.0427749737775 173 174 177
9662.085786971582 -14566.02667010286 -96.46963662271199 69 76 83
8963.442279521447 -13505.306954665371 -459.5527786069882 154 152 158
9185.05213408309 -13889.06457678238 -366.2574058512054 103 106 111
9583.231152981682 -14550.39625849389 -143.8026835144619 85 94 94
9940.427528420974 -14297.699870505428 -35.46533662339632 114 96 85
9558.598212376526 -14385.762750735346 -166.86511293054082 136 126 118
9581.459399887466 -14507.270829965371 -163.54621739186064 140 138 137
9477.259186328098 -14441.677186314746 -182.42742134421755 36 37 45
9536.692864258728 -14522.198930072158 -176.41411322514682 132 126 124
9636.639565824362 -14574.94365096235 -103.59394330278025 130 133 136
9677.944840806347 -14554.314014060737 -106.18768197898706 94 96 101
9590.436682046337 -14005.12137884586 -233.56587977008758 43 45 49
9333.87426665883 -14250.199737108323 -265.6400083890375 143 138 135
9426.447669608464 -14315.925996441436 -242.99250736274465 153 158 162
9971.342541454596 -14235.846388201884 -40.61737675678882 163 165 167
9592.709876106275 -14567.609736139466 -127.77584686995579 130 116 95
9229.153726322345 -14160.879429241706 -306.9533968033798 150 146 140
9028.561489509504 -13896.990899247243 -399.12892924003955 72 61 58
9578.640942838883 -14344.049014249576 -175.86861680675224 47 47 49
8654.418070151241 -13443.816028133557 -549.130351551401 74 67 58
9523.43744531846 -13966.233010183016 -253.52188146556801 40 35 34
9686.926335475042 -14577.962859677173 -86.09632410605909 171 179 180
9132.786405608416 -14019.177680768888 -374.7196078770325 33 35 41
9351.915105666123 -14320.757282796338 -251.6241852871404 37 35 35
9713.48901231267 -13843.685561055214 -226.2637748191602 31 30 35
9659.736258218052 -14168.61472652471 -197.01148973597887 70 69 75
9738.524889010889 -14306.502632492658 -136.48855313656372 69 68 66
9771.197318141876 -14271.526958747747 -125.32339979391344 37 40 37
9594.462218120101 -14556.715188414273 -120.16626471463017 151 150 151
9100.964882003358 -13790.645274774066 -389.3836258706573 47 41 39
9080.819539492082 -13653.985167914558 -419.7733664073896 149 149 151
9242.112033437264 -14150.795008134864 -309.6050764598272 67 56 52
9834.055678144665 -14299.766625960461 -81.3097930804597 38 44 43
9668.9686148103 -14612.615518247005 -73.35292190053605 64 62 60
9472.537922499165 -14164.232966487587 -242.9030101592402 45 41 40
9238.129088476207 -14206.175272582788 -305.0590511359177 42 36 38
9550.886412559279 -13975.163432705807 -243.0701577736807 43 49 49
9870.200803953581 -14177.396516082566 -108.38077477308535 106 91 85
9615.20098712539 -14282.955551033308 -173.6109129070354 115 98 87
9100.661705765056 -13977.008544894936 -389.7685705682417 111 118 122
9544.518619142355 -14051.296800914908 -248.10018563820927 121 139 136
9753.480994985244 -14308.776356949324 -137.0578770627844 129 133 140
9524.25251686391 -13965.937012850896 -257.7451972420569 31 33 32
9166.20443232224 -14084.786276690136 -347.0063374014518 128 127 132
9844.328900493832 -14270.360659044258 -87.91549454693342 186 186 184
9059.039108879577 -13943.655544925996 -398.1424332671299 136 141 146
9487.783843703164 -13782.760379376065 -291.8827085263425 31 32 36
9205.178181175133 -13740.435452523496 -379.1239179317858 133 134 138
9418.182503127267 -14272.47957751499 -242.46834970831705 115 120 126
9099.877457574059 -13976.255633032675 -375.8367733423738 23 24 31
9709.333668327963 -14393.633537421394 -116.38933550753872 62 54 54
9584.617540135185 -14556.47071495918 -146.73976498113996 150 160 165
9625.784507275948 -14558.231079733381 -112.2464339661064 165 166 164
9733.371098271358 -14575.526862366294 -64.12815897503715 145 151 154
9464.399872903581 -14431.06641472326 -186.58060507286785 154 145 136
9745.854028117505 -14343.992834233066 -111.98704645070967 100 87 71
9624.509763587572 -14446.845438381419 -172.4230480312161 139 143 149
9420.043002475935 -13972.441337075496 -277.88279026325284 130 130 130
9507.13941503086 -14088.1237138784 -246.66461694581207 41 34 35
9557.326492792827 -14022.054785341199 -244.87198355011927 91 90 92
9683.403333489985 -14190.883884421182 -191.91622950465836 36 35 41
9784.679084218047 -14231.57800330861 -144.01771618197435 102 91 83
9743.70342703156 -14506.28560132909 -78.92744597939142 34 41 46
9581.942409695162 -14500.35288343748 -153.30412259723283 30 38 47
9401.982071655058 -13702.08225958154 -310.6352129212494 50 44 41
9485.777838575308 -13949.955540459627 -259.9387952143088 157 157 155
9511.98625648516 -14288.589996978437 -208.98833257721284 157 152 153
9658.674132359536 -14575.327735212717 -88.20795863977612 124 115 95
9339.162076882609 -14356.083301104074 -248.9750941513967 52 51 52
9571.403302324832 -14100.954471738702 -231.43631809674667 43 44 45
9790.046130639888 -14508.773370281064 -49.00120593934282 124 108 92
9837.637330607005 -14371.539982821701 -64.25077991777731 104 118 130
9665.440667013554 -14570.935001218333 -90.77237048102549 153 154 150
9523.353520603629 -13914.73601709024 -260.35680598399597 52 48 47
9904.192167784435 -14193.136298832895 -86.58952419840189 114 98 89
9713.081449468811 -14124.699013737538 -185.42202540133138 91 73 65
9766.930814578545 -14474.675669379541 -78.23403529763951 131 99 98
9341.730795463702 -14163.220909523081 -279.1390225784082 148 148 151
9638.884613058919 -14308.062967692762 -157.4013760736416 136 113 99
8348.522092888212 -14363.084412137227 -571.0097013895025 167 167 165
9585.028228939414 -13985.692964520977 -235.4098755167704 51 49 49
9719.607269846403 -14281.740518583647 -138.19712848238518 120 118 121
9844.43267939299 -14413.263761753979 -62.71804850873858 105 91 97
9480.122256656097 -13872.151910286582 -278.43276250521205 58 53 50
9568.512035317151 -14039.930070060635 -237.36775337106147 39 36 36
9311.997332134559 -14277.058851863078 -277.61519714099035 40 37 43
9318.031562192804 -14322.90766773771 -261.6538657347363 125 121 117
9552.470920654912 -14069.050679017077 -239.05637867367935 24 30 34
9809.83230704628 -14284.985605869984 -108.51302086445085 140 144 147
9120.469886045461 -13992.019666191676 -381.03856981436854 108 112 116
9507.640903297659 -14060.736677394052 -254.23300138422073 49 44 44
9113.61679548051 -13971.423233720221 -377.74920969609457 42 42 42
9479.697028196368 -14057.01533340362 -258.06969667224996 63 52 43
9550.06177830015 -14583.80733501559 -139.01800084860233 37 41 42
9288.54247159797 -14103.24073521305 -306.96836228210805 29 35 40
9547.178350523061 -14399.298781834088 -166.04715470159226 140 134 127
9875.418869699679 -14272.269525925694 -78.98108003999572 55 54 58
9157.751038329165 -14047.7466538207 -355.38541837868803 66 56 49
9510.124083770535 -13947.138062384643 -259.503441496979 54 48 43
9359.914387778404 -14192.646858790968 -272.93575684508016 146 148 152
9019.942062137054 -13889.238511102489 -401.4695745594076 55 52 49
9027.765472313979 -13860.091279434051 -420.0106346377495 107 112 116
8915.609407163298 -13785.972321367148 -463.58086631586946 86 88 92
8830.476601494809 -13620.700876413157 -485.58846145820246 59 50 43
9520.82670707458 -13916.560410419235 -265.578825507609 86 78 73
8795.210989111809 -13417.901502554669 -523.6051747727228 152 156 161
9660.870083054308 -13962.040614107416 -216.06858750514493 132 130 128
9110.916028364525 -13990.318508859067 -375.92434506416794 55 56 60
9123.873170411904 -14014.755111899118 -368.4061610264589 138 142 147
9270.260526572172 -13969.601949186845 -330.8854080598188 101 102 105
9818.754738996488 -13709.001317102064 -181.476441672641 119 120 121
9379.663052990785 -14381.345297681311 -239.02562973981784 67 78 94
9381.080889527326 -13726.084550010552 -308.4771321077209 37 47 53
9660.18189413434 -14217.656782021199 -179.64758407698997 163 155 149
9060.425644511719 -13543.12613542925 -429.44578044836993 152 152 159
9606.839440314357 -14214.061124653585 -203.9015877518711 69 71 72
9469.713683627151 -14424.167930644024 -205.65895007149243 71 77 84
9600.61115613435 -14553.303300321984 -143.69983660594525 74 82 85
9756.532874739692 -13792.106608463671 -206.70844377970377 88 81 79
9113.932980411808 -13561.734792339059 -414.4154864325577 157 160 164
9233.540615260335 -13558.47825342816 -380.0960782208572 69 62 51
9239.063932096053 -13549.855951328384 -375.4385861516847 141 149 159
9638.638051354701 -14099.319471017472 -208.06164650937757 30 34 41
9681.228485772666 -14562.182713541817 -94.94740564990164 136 142 146
9215.099203491181 -14130.980340404825 -333.5241605828349 64 67 70
9038.50205832684 -13944.40465978692 -392.5663949375134 66 62 60
9644.566950366305 -14251.722689974142 -176.17602641478572 118 121 129
9733.371098271358 -14575.526862366294 -64.12815897503704 145 151 154
9597.70634450926 -14195.247376901541 -211.5800564274596 99 92 80
9731.478757175495 -14235.044552985133 -153.27560340454525 149 151 150
9775.690041105792 -13835.682943118967 -206.507268094554 31 31 37
9483.60847586035 -14442.253673478423 -178.32812011481087 57 55 60
9560.26878384452 -14089.018725040432 -231.5567478815386 101 105 106
9659.839032330668 -14160.845632821845 -201.42645592677744 99 106 116
9648.201538273941 -14278.860597708119 -162.66282181591626 180 180 182
9567.919939163321 -13972.073052395437 -240.2120179192572 133 131 127
9218.983257566175 -13917.176934503388 -361.5731316551197 44 47 53
9469.623172869204 -14469.42810906575 -171.51101971627233 110 108 104
9222.544682871136 -14181.547653726007 -326.60157162848793 56 54 59
9731.050726568743 -14517.497518502785 -73.7387588336926 89 86 82
9541.553862009265 -14585.837127889848 -142.98838528742206 63 61 57
9651.848569606751 -14016.691362991083 -212.2249529212483 143 139 137
9778.945950932859 -14416.283968445183 -84.71955146002877 153 142 132
9520.071401236037 -14076.615639121666 -244.30822745784062 79 75 74
8274.733313297515 -14147.459485124262 -570.7916904977461 151 150 150
9558.65327952454 -14240.204585647163 -209.83666863408436 88 72 63
9169.505213228318 -14051.745752945859 -347.39972251569657 129 130 135
9299.65653554712 -13515.724464404202 -354.45580737746695 108 113 117
9532.4457840416 -13914.432731023264 -245.75888837470308 81 77 79
9614.046996450814 -14409.762569353987 -144.77246234964758 132 137 138
9684.217539804726 -14288.158346777958 -149.25520331428993 87 87 82
9594.462218120101 -14556.715188414273 -120.16626471463017 151 150 151
9632.439496246869 -14260.661519325196 -166.07670735255098 66 64 63
9531.049520169903 -14389.985648399548 -180.04481687333734 40 46 47
9644.024733575325 -14575.082130177 -98.18138045161136 130 142 149
9514.67496349865 -13970.356383244673 -239.163627031777 191 190 184
9576.828949611963 -14115.878006455361 -222.52230147298218 99 100 106
9666.98619624931 -14469.808610241282 -121.05451413568623 173 164 153
9714.779005520697 -14502.911931604165 -97.44096796559339 50 57 62
8548.424682902125 -13636.90413779727 -588.7594832545145 83 68 59
9645.661329002218 -14439.891322686928 -154.35302740882847 134 137 151
9569.10102335785 -14497.985591976007 -166.9616559726347 113 124 130
9137.224830531946 -13562.386962499946 -408.95560413023804 64 56 46
9636.149644607089 -14202.14993510779 -198.74022124417 49 51 58
9633.279515893464 -14069.842441021729 -217.29368392619537 27 31 33
9723.443629416903 -14092.334210821567 -192.88861144697057 97 81 74
9049.027807746075 -13960.065467816125 -397.0061189193639 132 126 121
8882.778784287002 -13643.306010647642 -462.84116741588053 62 53 46
9031.145215778784 -13471.185849404124 -441.8839186920564 153 155 159
9675.318638106835 -14563.791011737425 -97.22662600099639 166 172 174
9678.28252952557 -14177.615919101112 -185.6409577530856 79 74 74
9175.104426721668 -13874.763701879225 -372.4118842745479 46 45 50
9079.822570169836 -13646.685524272398 -427.8460137008458 66 57 47
9580.98164924441 -14017.932621830156 -242.61772021830254 73 70 66
9767.134356595243 -14493.667125290567 -68.1799981552992 162 162 162
9581.162894672085 -13919.32050137278 -254.078397948868 95 82 76
9121.41873893317 -14057.280949257294 -361.1596247169026 108 100 88
9979.12980260484 -14203.512229125867 -50.692609066116695 172 178 181
9412.268918201153 -14427.503534751933 -205.34399864141986 85 87 90
9727.764355275694 -14561.285739326318 -62.800684409995625 47 45 48
9121.759570486804 -13669.070876519087 -404.42217083586127 71 62 51
9443.802220118218 -14417.947704690634 -197.28713386114532 123 117 108
9356.718171178 -14381.032134451936 -248.8688477183483 151 141 142
9464.304180430912 -14070.582306547814 -254.10495420101736 96 87 81
9715.214905154078 -13692.215560931581 -214.08926540964774 26 31 36
9191.940139855615 -13583.9837332112 -389.0432323898033 153 154 158
9350.05260453298 -14315.334214696972 -252.66795806860912 50 45 45
9674.946099969502 -14581.080412035717 -86.6561345968941 75 80 86
9640.09234222972 -14566.109740182503 -116.10705714490767 146 148 153
8687.225414880717 -14124.575295810288 -489.46047906401316 199 204 207
9364.013879182605 -14385.744589828533 -241.56350310041393 81 77 74
9553.710969589549 -13979.309623549474 -245.05240590912564 125 121 116
9556.753447851153 -14085.836794247147 -229.06005384706674 63 65 66
9705.408033441003 -14105.445525422927 -194.33012691212855 209 208 206
9113.698703777201 -13991.472152104812 -380.1797615188119 32 36 38
9638.96129614895 -14522.099783528793 -117.32448580102202 152 151 150
8992.975986342617 -13832.689568193826 -424.7262990592104 35 38 42
9730.544096370397 -14586.546214026563 -56.12121300480559 39 40 43
9207.255206332118 -14097.7454846004 -338.33700974229504 51 56 60
8963.190466175847 -13527.957775910778 -461.3753019930766 116 120 127
9837.039430037903 -14350.15633853678 -70.83609923209988 144 142 147
9524.951975697813 -14585.205921652292 -157.0024214058674 71 70 67
9693.739821153275 -14572.989794753279 -88.44614881273064 78 82 85
9508.94236876733 -14326.662408903014 -203.11301425606692 49 49 50
9486.824030510586 -14361.914582484234 -211.68626504754604 69 82 97
9518.411597528584 -14066.899244107924 -251.03146156612388 41 47 53
9647.6613739453 -14216.865621468847 -180.97921641645692 93 85 79
9037.938899196013 -13959.753463194718 -394.9802976693909 58 56 56
9693.616192504136 -14244.948683283223 -170.61506164326727 40 44 42
9781.93391895149 -14500.962605115938 -63.09687956776929 66 72 77
9600.436889944918 -14448.945245235907 -169.4745630526331 102 95 75
9718.788976073727 -14125.875468568966 -184.87670330586198 76 72 72
9535.22488124478 -14435.185130171638 -168.3269528928643 157 141 126
9082.21542336637 -13893.197233057437 -389.67232843266834 97 88 81
9704.815250911324 -14460.108906398527 -108.6527807563403 160 162 163
9791.025116028644 -14269.21634562508 -115.62794185465069 180 181 182
9641.225449259955 -13914.321394326533 -227.6254670880948 163 163 163
9501.042447873202 -14257.844129141731 -229.98896710131055 159 164 167
9707.64614955219 -14167.940296914861 -181.97629441423427 107 98 95
9762.55532962236 -14221.926106396695 -146.91744355486097 146 146 149
9485.555665504904 -14584.023338319286 -184.08078984007062 112 111 110
9972.18680800325 -14263.133137321987 -40.04956097306527 57 62 51
9433.567345244992 -14398.843840168529 -202.317185310501 116 109 105
9703.9515836496 -14124.891683388058 -187.26213507084424 61 48 47
9748.972261426932 -14244.775605389628 -141.64940238512418 119 123 128
9474.91152343018 -14589.77018133707 -184.76804630360442 62 64 64
8640.243831563206 -13418.487545454624 -554.470068184989 48 46 43
9720.128977759312 -14083.066860119283 -180.9210283046346 89 75 68
9542.984944437485 -14042.847262285844 -241.97751044846703 89 93 95
8894.563077584216 -13404.635076239076 -485.1781526652485 137 137 139
9424.874461595695 -14131.50555035198 -256.67857735502935 54 48 44
8969.867482265325 -13832.767093473083 -431.1910670477533 130 132 137
9209.072236351196 -14131.989872994927 -328.27320807654274 30 34 37
9806.586582242579 -14213.343113661222 -147.77172396298718 100 91 89
9132.876232453296 -14020.794450373141 -371.96912642172265 147 153 157
9454.310599148943 -14425.907021501824 -204.18164593966506 177 183 188
9619.65361723784 -14573.589546856321 -112.61971569175412 169 169 170
9457.846005773314 -14074.648799979368 -255.5743757396607 50 45 43
9661.100979445457 -14291.72612289424 -157.11765508497422 48 48 47
8952.917172840787 -13771.213760841425 -443.68158610626256 83 86 84
9442.289353799511 -14091.426469110273 -257.9314551658451 85 80 78
9427.767503262276 -14086.663750047257 -263.617500633154 124 124 124
9819.945613653954 -14363.34072727913 -73.83960483812234 142 152 158
9464.304180430914 -14070.582306547814 -254.10495420101705 96 87 81
9539.547804811455 -14011.3264438658 -248.02045905507666 49 49 50
9622.941342089056 -14448.976311223201 -155.41100487450163 164 165 167
9203.355172307109 -14186.717528136252 -316.1621337025164 35 38 41
9778.044085267302 -13832.202768548977 -201.8449425890236 74 72 69
9581.278539741663 -14065.585744078046 -229.821228278775 76 87 93
9625.708130592513 -13941.177076306683 -227.3682677078956 146 146 144
9505.306417243442 -14365.70552730881 -203.28591617325608 56 69 79
9648.26437626533 -14013.586497008318 -214.47065390818986 141 139 138
9525.899141371394 -14072.03828726685 -240.34614149017773 99 96 93
9531.021791513334 -14033.801517556882 -246.79307752111768 54 50 52
9012.97255939635 -13868.805828078634 -415.6460897900981 49 41 41
9599.530517937974 -13969.328548054105 -236.85485977885367 148 150 153
9793.703017785714 -14505.434110760481 -55.02102124022054 137 132 126
9179.896239587859 -13490.847201363109 -392.95030968758954 165 163 160
9691.855182617895 -14194.474373803716 -180.49530492056778 72 83 91
9644.566950366305 -14251.722689974142 -176.17602641478578 118 121 129
9497.542310679939 -14468.699798889164 -166.27665980122956 71 69 67
9539.61313185168 -13899.985492012356 -261.7012538298234 45 45 45
7854.865804437141 -13997.088362102153 -723.4256793838464 120 120 116
9291.650286929325 -13639.85227693608 -346.6542621145456 104 102 100
9658.56460539753 -14212.553397239744 -180.04093810143533 88 85 73
9677.298097007062 -14009.544364603105 -209.24595829053115 81 71 70
9750.098945251386 -13648.724566568018 -200.29138490702397 44 38 41
9765.04652600742 -14277.836085183873 -125.8434368628929 109 103 93
9164.670901985872 -13924.32233113839 -377.02113497101294 86 88 88
9092.374986758505 -13989.426840288344 -374.1855072656085 69 67 62
9364.727799800596 -14038.381752523632 -284.88240851976286 81 73 68
9561.991426786053 -14094.597939367595 -231.23136604319393 93 94 94
9520.665950087048 -14436.596344811427 -169.68826670295675 60 59 62
9713.7812467499 -14441.482440959031 -103.9079990768421 61 61 64
9652.864915864924 -14608.293563724665 -80.53658815032446 134 126 113
9655.265822796364 -13939.71192379837 -221.1290457361539 168 170 168
9559.072222366607 -13996.456876139366 -244.67992117640995 50 47 49
9533.13352505178 -14080.200451700743 -244.05097619726067 47 40 38
9795.67065728283 -14313.374785217125 -100.77696233587197 51 51 51
9564.152820308449 -14017.1594927299 -243.85215129699446 51 51 54
9175.104426721668 -13874.763701879225 -372.4118842745479 46 45 50
9541.27304030814 -14086.647180319129 -234.2438006507145 97 87 69
9510.020570552375 -14060.720226582413 -249.3279329653641 46 44 45
9854.891466363224 -14311.100767447837 -68.23530410327216 54 54 57
9198.122618050158 -13872.533317884308 -367.7895837432763 91 94 96
9535.478331624967 -13955.140816682419 -252.72994505887954 125 120 119
9523.962047398867 -13892.113603739352 -265.8295550427036 71 66 62
9484.421356054658 -14351.721145219166 -212.7422502988026 126 106 97
9768.911114545017 -14269.608839617451 -129.29413145973126 168 150 118
9757.095245153978 -14303.48583295022 -121.52099750184502 47 41 46
