ply
format ascii 1.0
element vertex 773
property float x
property float y
property float z
property float nx
property float ny
property float nz
property uchar diffuse_red
property uchar diffuse_green
property uchar diffuse_blue
property uchar class
property uchar detection
end_header
9227.1143 -13895.4883 76.1409 0.324 0.150 0.934 71 72 76 0 0
9224.5088 -13893.9199 75.5850 0.330 0.828 0.454 78 74 77 0 0
9217.7871 -13891.6572 74.1373 0.287 0.935 0.208 54 47 42 0 0
9212.2432 -13889.5850 72.9449 0.298 0.932 0.208 54 45 39 0 0
9206.4951 -13887.4697 71.7082 0.232 0.913 0.336 52 43 36 0 0
9219.9648 -13882.9326 74.6781 -0.011 0.060 0.998 54 45 40 0 0
9219.2930 -13881.6787 74.5410 -0.025 0.058 0.998 53 45 38 0 0
9231.8564 -13869.1943 77.3738 0.441 -0.737 0.513 49 42 39 0 0
9237.3945 -13869.0820 78.5816 0.700 0.371 0.610 47 45 43 0 0
9237.4307 -13867.9629 78.5979 0.543 0.602 0.585 44 44 46 0 0
9230.3438 -13859.8779 77.1147 0.121 0.288 0.950 102 100 102 0 0
9229.3018 -13858.5508 76.8977 0.145 0.455 0.879 106 101 99 0 0
9235.5234 -13851.8398 78.3045 0.068 -0.123 0.990 102 100 101 0 0
9238.7822 -13849.0967 79.0354 0.186 -0.127 0.974 44 46 51 0 0
9228.9453 -13807.5625 77.2068 -0.054 0.040 0.998 41 34 28 0 0
9223.3145 -13800.6484 76.0321 0.051 0.058 0.997 56 54 57 0 0
9226.3252 -13789.9766 76.7691 -0.009 -0.235 0.972 46 34 29 0 0
9250.1484 -14085.3174 78.5837 0.198 0.170 0.965 57 53 52 0 0
9248.3008 -14071.8574 78.2818 0.200 0.211 0.957 54 50 39 0 0
9247.7402 -14070.7080 78.1678 0.208 -0.002 0.978 70 66 54 0 0
9247.7246 -14069.5938 78.1729 0.208 -0.002 0.978 47 45 42 0 0
9247.9658 -14068.4951 78.2340 0.197 -0.055 0.979 45 43 41 0 0
9245.5186 -14062.7598 77.7423 0.552 0.584 0.596 55 50 45 0 0
9245.6865 -14061.6553 77.7873 0.485 0.328 0.811 54 50 43 0 0
9247.2100 -14045.0410 78.2464 0.374 -0.112 0.921 52 49 45 0 0
9248.7822 -14042.9375 78.6060 0.196 0.085 0.977 60 53 47 0 0
9248.9326 -14037.3809 78.6810 0.137 -0.233 0.963 54 42 36 0 0
9250.3291 -14036.3838 78.9938 0.120 -0.394 0.911 56 45 39 0 0
9251.1758 -14035.3428 79.1867 0.081 -0.266 0.961 58 47 39 0 0
9252.2402 -14034.3213 79.4272 0.052 0.255 0.966 59 49 40 0 0
9251.4512 -14033.1416 79.2635 0.062 0.112 0.992 62 54 45 0 0
9248.6865 -14030.6758 78.6780 0.033 0.028 0.999 62 52 43 0 0
9242.8193 -14014.5078 77.5177 -0.016 0.183 0.983 66 58 52 0 0
9239.5176 -14011.9463 76.8152 -0.050 0.147 0.988 69 62 49 0 0
9250.1689 -14001.8555 79.2202 0.315 0.930 0.188 63 55 50 0 0
9248.7441 -14000.5918 78.9184 0.277 0.955 0.103 56 47 42 0 0
9247.7246 -13999.3682 78.7046 0.159 0.921 0.356 56 48 42 0 0
9244.2578 -13997.8828 77.9581 0.234 0.969 0.081 55 45 40 0 0
9236.6299 -13995.9443 76.3051 0.520 0.688 0.506 48 40 34 0 0
9235.2314 -13994.6699 76.0090 0.520 0.688 0.506 49 41 36 0 0
9238.2930 -13990.5137 76.7099 0.017 0.030 0.999 50 41 38 0 0
9237.2236 -13989.2725 76.4855 0.015 0.091 0.996 46 39 36 0 0
9236.0596 -13988.0186 76.2406 -0.001 0.005 1.000 47 38 35 0 0
9235.9932 -13986.8877 76.2345 -0.001 0.005 1.000 43 36 32 0 0
9240.1016 -13982.8682 77.1632 0.246 -0.159 0.956 40 36 33 0 0
9241.6133 -13981.9229 77.5009 0.272 0.237 0.933 44 39 36 0 0
9241.0049 -13980.7324 77.3767 0.272 0.237 0.933 42 37 34 0 0
9232.8760 -13973.0254 75.6581 -0.060 -0.132 0.989 48 43 41 0 0
9234.3057 -13972.0742 75.9779 -0.064 -0.159 0.985 48 43 40 0 0
9235.3076 -13971.0713 76.2046 -0.061 -0.130 0.990 49 44 42 0 0
9235.8887 -13970.0186 76.3396 -0.047 -0.064 0.997 50 45 43 0 0
9235.9795 -13968.9053 76.3678 -0.031 0.283 0.959 50 45 43 0 0
9234.5586 -13967.6045 76.0671 -0.033 0.308 0.951 51 44 41 0 0
9235.4170 -13966.5869 76.2624 -0.034 0.076 0.997 53 48 45 0 0
9234.0752 -13956.2900 76.0469 -0.026 -0.141 0.990 51 46 41 0 0
9232.9209 -13955.0127 75.8044 0.039 0.229 0.973 50 43 40 0 0
9232.9512 -13953.8906 75.8194 0.051 0.164 0.985 49 43 39 0 0
9232.1572 -13952.6582 75.6551 0.051 0.164 0.985 46 39 35 0 0
9229.7568 -13916.2129 75.4063 0.099 -0.010 0.995 56 55 56 0 0
9230.1611 -13915.1465 75.5029 0.118 -0.214 0.970 41 39 39 0 0
9230.8945 -13907.3594 75.7222 0.337 -0.458 0.823 62 62 63 0 0
9231.9951 -13906.4082 75.9701 0.380 -0.165 0.910 59 61 64 0 0
9232.6885 -13905.3916 76.1293 0.250 -0.533 0.808 68 66 70 0 0
9232.1611 -13904.1787 76.0231 0.343 0.428 0.836 74 71 75 0 0
9231.7959 -13902.9912 75.9524 0.319 0.429 0.845 76 76 78 0 0
9230.7773 -13901.6963 75.7394 0.330 0.391 0.859 72 70 75 0 0
9229.7217 -13900.3945 75.5185 0.370 0.325 0.870 77 75 76 0 0
9230.0537 -13899.3193 75.5994 0.296 0.041 0.954 71 68 70 0 0
9229.0928 -13898.0303 75.3989 0.288 -0.043 0.957 73 69 72 0 0
9229.1602 -13896.9121 75.4221 0.271 -0.030 0.962 70 69 67 0 0
9229.4648 -13895.8320 75.4969 0.304 0.280 0.910 50 50 50 0 0
9228.7510 -13894.5830 75.3504 0.304 0.280 0.910 44 41 44 0 0
9227.3828 -13893.2227 75.0615 0.317 0.483 0.816 43 36 34 0 0
9227.7881 -13892.1592 75.1583 0.284 0.309 0.908 50 42 38 0 0
9226.9668 -13890.8887 74.9884 0.262 0.383 0.886 52 43 38 0 0
9226.6289 -13887.4355 74.9405 -0.019 0.033 0.999 62 50 44 0 0
9227.3096 -13886.4209 75.0969 -0.001 -0.099 0.995 58 47 41 0 0
9226.8535 -13884.0781 75.0151 0.046 0.046 0.998 56 48 41 0 0
9225.2627 -13882.6689 74.6780 0.093 0.280 0.955 53 46 40 0 0
9225.5586 -13881.5879 74.7509 0.080 0.402 0.912 50 44 41 0 0
9224.2656 -13880.2275 74.4784 0.050 0.270 0.962 47 41 39 0 0
9223.1514 -13878.8975 74.2449 0.012 0.140 0.990 47 42 40 0 0
9230.5273 -13870.0293 75.9247 0.051 -0.721 0.691 49 42 38 0 0
9232.7705 -13869.3096 76.4205 0.441 -0.737 0.513 49 41 38 0 0
9238.2861 -13869.1943 77.6271 0.700 0.371 0.610 44 41 42 0 0
9234.8545 -13861.8018 76.9329 0.810 0.151 0.567 81 81 83 0 0
9233.6973 -13860.4570 76.6901 0.774 0.393 0.496 97 98 98 0 0
9233.0098 -13859.1992 76.5494 0.398 0.590 0.703 99 98 96 0 0
9234.8799 -13858.4248 76.9639 0.884 -0.410 -0.224 101 99 95 0 0
9233.0811 -13856.9561 76.5820 0.668 -0.744 -0.014 106 104 99 0 0
9241.1182 -13850.6230 78.3869 0.760 -0.173 0.627 37 39 43 0 0
9241.8105 -13839.5303 78.6223 0.850 0.465 -0.246 43 35 33 0 0
9245.5352 -13839.1611 79.4394 0.459 0.883 0.098 43 37 34 0 0
9242.5205 -13837.4277 78.7934 0.767 0.547 0.335 41 36 35 0 0
9245.8301 -13836.9795 79.5202 0.212 0.856 0.472 72 75 79 0 0
9236.8711 -13834.0283 77.5842 0.203 0.869 0.452 111 113 119 0 0
9258.3174 -13816.1680 82.4078 0.091 -0.900 0.427 41 36 30 0 0
9263.9990 -13816.2979 83.6490 0.113 -0.973 0.200 41 35 28 0 0
9220.2246 -13805.5908 74.1604 0.808 0.577 -0.122 44 36 31 0 0
9223.0762 -13803.9434 74.7962 0.048 -0.381 0.923 42 33 27 0 0
9227.4180 -13803.7686 75.7466 0.034 0.039 0.999 45 35 32 0 0
9231.8838 -13802.4961 76.7327 -0.020 0.048 0.999 53 47 49 0 0
9231.5430 -13801.2891 76.6673 -0.020 0.048 0.999 63 58 60 0 0
9231.2012 -13800.0820 76.6018 -0.020 0.048 0.999 63 58 59 0 0
9228.9668 -13790.5205 76.1857 0.058 -0.427 0.902 46 34 31 0 0
9230.3223 -13789.7002 76.4881 0.058 -0.427 0.902 43 35 32 0 0
9251.6855 -14088.7139 77.7576 0.225 -0.376 0.899 55 53 50 0 0
9252.2646 -14087.6338 77.8926 0.200 -0.163 0.966 60 57 53 0 0
9253.1152 -14086.5684 78.0873 0.263 0.154 0.952 62 58 55 0 0
9251.5059 -14083.1484 77.7602 0.248 0.221 0.943 67 61 59 0 0
9250.1035 -14079.7334 77.4786 0.183 0.306 0.934 58 52 48 0 0
9250.6074 -14065.3057 77.6980 0.314 -0.019 0.949 57 55 52 0 0
9249.2402 -14064.1016 77.4073 0.352 0.386 0.853 63 59 56 0 0
9251.5293 -14052.0264 78.0008 0.425 0.430 0.797 62 55 48 0 0
9249.0107 -14045.1562 77.5004 0.374 -0.112 0.921 51 49 43 0 0
9250.3623 -14044.1494 77.8042 0.231 -0.227 0.946 62 57 51 0 0
9253.3223 -14036.6084 78.5104 0.128 -0.233 0.964 57 49 45 0 0
9258.6592 -14034.8418 79.6942 0.417 0.081 0.906 54 47 41 0 0
9255.7588 -14031.2656 79.0852 0.490 0.426 0.760 49 42 37 0 0
9252.5889 -14029.8770 78.4005 0.180 0.374 0.910 51 44 35 0 0
9250.8379 -14018.5928 78.1019 0.069 -0.138 0.988 73 66 57 0 0
9250.2783 -14016.3125 77.9964 0.225 0.119 0.967 78 67 56 0 0
9250.0576 -14015.1777 77.9565 0.250 0.269 0.930 66 57 47 0 0
9252.6143 -14002.0801 78.6163 0.341 0.920 0.194 90 87 87 0 0
9250.6562 -14000.7607 78.1968 0.251 0.960 0.122 96 91 90 0 0
9250.4502 -13999.6250 78.1603 0.148 0.915 0.376 89 87 89 0 0
9245.0938 -13997.9385 76.9983 0.205 0.959 0.196 57 52 50 0 0
9244.8760 -13982.2676 77.0692 0.147 0.490 0.859 53 48 44 0 0
9242.8428 -13980.9111 76.6336 0.227 0.461 0.858 48 43 40 0 0
9239.6768 -13954.7422 76.1370 -0.028 0.069 0.997 54 49 47 0 0
9241.2539 -13935.8916 76.6255 0.084 0.489 0.868 54 48 45 0 0
9238.7539 -13934.4082 76.0885 0.073 0.497 0.865 48 44 40 0 0
9236.0713 -13929.5215 75.5372 -0.011 -0.205 0.979 49 41 38 0 0
9237.0752 -13928.5449 75.7647 -0.009 -0.223 0.975 48 40 37 0 0
9238.4834 -13927.6299 76.0803 -0.002 -0.104 0.995 45 39 36 0 0
9237.7529 -13926.3975 75.9294 0.020 0.127 0.992 44 40 39 0 0
9234.7637 -13918.0693 75.3370 0.094 0.108 0.990 46 38 35 0 0
9233.5898 -13916.7607 75.0893 0.188 0.049 0.981 41 43 42 0 0
9233.1650 -13915.5684 75.0052 0.181 -0.261 0.948 40 37 36 0 0
9234.7959 -13904.5596 75.4462 0.230 0.309 0.923 40 36 38 0 0
9233.9111 -13903.2891 75.2617 0.330 0.391 0.859 40 39 41 0 0
9232.3379 -13897.3926 74.9613 0.231 -0.002 0.973 44 41 43 0 0
9231.7422 -13896.1650 74.8400 0.344 0.277 0.897 43 40 42 0 0
9231.0928 -13894.9268 74.7068 0.344 0.277 0.897 34 30 29 0 0
9230.6143 -13893.7178 74.6112 0.310 0.323 0.894 43 38 36 0 0
9230.1797 -13892.5146 74.5249 0.333 0.232 0.914 49 43 39 0 0
9229.6318 -13891.2920 74.4140 0.333 0.232 0.914 49 41 37 0 0
9232.0713 -13888.3203 74.9715 0.054 0.006 0.999 59 47 40 0 0
9232.2178 -13887.2168 75.0119 0.089 -0.031 0.996 53 43 38 0 0
9232.3018 -13886.1025 75.0387 0.089 -0.031 0.996 55 44 37 0 0
9229.3672 -13883.3350 74.4161 0.123 0.234 0.965 48 40 34 0 0
9230.5195 -13882.4053 74.6759 0.080 0.402 0.912 49 42 39 0 0
9228.7510 -13879.8350 74.3076 0.012 0.140 0.990 51 47 43 0 0
9233.0312 -13870.4346 75.3172 0.051 -0.721 0.691 47 40 35 0 0
9238.1875 -13869.1250 76.4579 0.568 -0.205 0.797 43 39 39 0 0
9239.1084 -13868.1699 76.6670 0.570 0.492 0.658 39 38 41 0 0
9235.5654 -13861.8828 75.9377 0.810 0.151 0.567 87 87 88 0 0
9234.3789 -13860.5332 75.6876 0.774 0.393 0.496 90 92 91 0 0
9234.7803 -13859.4805 75.7836 0.398 0.590 0.703 91 91 90 0 0
9234.5713 -13858.3135 75.7466 0.890 -0.304 -0.341 92 91 88 0 0
9233.5596 -13856.9941 75.5347 0.749 -0.634 -0.193 91 90 88 0 0
9234.8535 -13856.1123 75.8251 0.701 -0.713 -0.006 92 91 90 0 0
9235.2031 -13855.0527 75.9099 0.688 -0.696 -0.205 100 99 96 0 0
9238.8965 -13853.5107 76.7314 0.505 -0.829 0.240 96 96 94 0 0
9240.6992 -13852.7354 77.1326 0.492 -0.399 0.774 98 97 96 0 0
9241.2188 -13850.5889 77.2628 0.984 0.053 0.171 37 37 40 0 0
9242.8555 -13839.6855 77.7042 0.928 0.292 0.232 44 36 33 0 0
9242.4336 -13838.4775 77.6207 0.842 0.538 0.034 46 37 35 0 0
9245.5625 -13837.9902 78.3106 0.515 0.424 0.745 42 37 35 0 0
9240.9023 -13804.4434 77.5423 -0.015 0.271 0.963 62 56 57 0 0
9243.0332 -13803.7949 78.0145 -0.001 0.292 0.956 75 73 75 0 0
9237.7412 -13801.4863 76.8714 -0.055 0.024 0.998 85 81 81 0 0
9237.5117 -13800.3076 76.8300 -0.055 0.024 0.998 84 79 81 0 0
9237.2812 -13799.1289 76.7885 -0.055 0.024 0.998 75 73 72 0 0
9249.3750 -14089.6846 76.1051 0.346 -0.938 0.025 60 59 54 0 0
9255.3867 -14083.3438 77.4756 0.126 0.227 0.966 55 51 48 0 0
9254.9238 -14082.2090 77.3822 0.128 0.150 0.980 65 60 58 0 0
9252.1738 -14066.4980 76.8959 0.306 0.239 0.922 53 50 49 0 0
9251.7930 -14065.3613 76.8206 0.328 0.129 0.936 57 57 54 0 0
9251.1367 -14064.2051 76.6850 0.305 0.384 0.871 53 51 49 0 0
9253.4102 -14056.5840 77.2427 0.146 -0.520 0.842 41 38 35 0 0
9253.1416 -14055.4541 77.1923 0.304 -0.109 0.946 44 39 37 0 0
9254.0068 -14054.4062 77.3904 0.307 0.131 0.943 58 52 45 0 0
9253.7461 -14053.2764 77.3415 0.296 0.230 0.927 53 47 42 0 0
9253.5635 -14052.1523 77.3098 0.372 0.430 0.822 57 50 45 0 0
9253.0400 -14051.0029 77.2034 0.326 0.251 0.911 58 53 48 0 0
9251.4473 -14049.7705 76.8623 0.349 -0.331 0.877 59 56 51 0 0
9255.3809 -14030.0938 77.8763 0.167 0.348 0.923 54 48 42 0 0
9254.4062 -14028.8975 77.6710 0.139 0.320 0.937 59 51 48 0 0
9254.5771 -14018.9170 77.7838 0.071 -0.070 0.995 64 56 44 0 0
9253.2773 -14002.1162 77.6247 0.341 0.920 0.194 106 105 106 0 0
9251.2646 -14000.7920 77.1921 0.251 0.960 0.122 100 97 94 0 0
9253.7559 -13999.9434 77.7464 0.129 0.896 0.424 75 70 69 0 0
9246.3184 -13998.0361 76.1246 0.172 0.941 0.291 61 52 44 0 0
9242.9346 -13996.5557 75.3915 0.437 -0.412 0.800 58 50 43 0 0
9244.4883 -13995.6045 75.7404 0.327 -0.462 0.824 53 46 37 0 0
9246.5820 -13993.5986 76.2163 -0.011 -0.031 0.999 52 44 39 0 0
9255.6162 -13987.9248 78.2465 0.209 0.498 0.842 52 45 41 0 0
9249.7324 -13982.7969 76.9908 0.274 0.961 -0.032 50 44 41 0 0
9246.1494 -13981.2627 76.2143 0.103 -0.331 0.938 45 40 37 0 0
9244.7617 -13952.0195 76.1297 0.235 0.335 0.912 50 45 44 0 0
9244.1680 -13949.7021 76.0166 0.116 0.260 0.959 56 50 46 0 0
9242.3926 -13942.7373 75.6786 -0.003 -0.058 0.998 64 54 53 0 0
9242.3457 -13941.6104 75.6769 -0.003 0.005 1.000 62 54 51 0 0
9242.1611 -13940.4639 75.6449 -0.003 -0.023 1.000 61 53 51 0 0
9242.2139 -13939.3506 75.6649 -0.003 0.005 1.000 63 55 52 0 0
9243.8506 -13938.4629 76.0317 0.021 -0.142 0.990 60 53 50 0 0
9244.5352 -13937.4414 76.1899 0.002 -0.218 0.976 61 54 51 0 0
9244.9912 -13936.3877 76.2983 0.092 -0.030 0.995 58 52 49 0 0
9244.0850 -13935.1377 76.1083 0.088 -0.181 0.980 54 51 47 0 0
9244.7744 -13934.1182 76.2677 0.092 -0.152 0.984 59 54 49 0 0
9245.3213 -13933.0781 76.3958 0.084 -0.175 0.981 61 54 49 0 0
9242.4014 -13931.5312 75.7651 0.025 0.111 0.994 64 57 52 0 0
9241.6074 -13930.2939 75.5998 0.028 0.119 0.992 62 56 51 0 0
9241.9307 -13929.2197 75.6791 -0.003 -0.020 1.000 55 50 47 0 0
9242.3828 -13928.1660 75.7866 0.004 0.071 0.997 56 52 48 0 0
9240.7559 -13926.8027 75.4390 -0.017 -0.005 1.000 56 52 48 0 0
9240.3545 -13924.4980 75.3681 -0.014 0.024 1.000 56 53 49 0 0
9237.4453 -13916.1885 74.7907 0.139 -0.027 0.990 50 48 43 0 0
9237.5059 -13915.0732 74.8124 0.139 -0.027 0.990 56 48 44 0 0
9237.8555 -13914.0039 74.8975 0.155 -0.064 0.986 53 46 43 0 0
9238.7588 -13909.6504 75.1291 0.148 -0.051 0.988 55 47 42 0 0
9236.3174 -13907.0107 74.6120 0.286 0.083 0.955 50 46 41 0 0
9237.6562 -13904.9766 74.9218 0.184 0.278 0.943 45 41 38 0 0
9235.5010 -13896.7441 74.5098 0.209 0.291 0.934 46 41 38 0 0
9235.5049 -13895.6182 74.5193 0.147 0.257 0.955 45 42 41 0 0
9234.5518 -13894.3320 74.3192 0.147 0.257 0.955 47 43 41 0 0
9236.1826 -13893.4805 74.6845 0.083 0.052 0.995 48 43 40 0 0
9234.9482 -13871.8604 74.5760 -0.008 -0.129 0.992 49 42 39 0 0
9236.0312 -13870.9307 74.8215 0.034 -0.526 0.850 45 40 36 0 0
9240.0107 -13869.4082 75.7084 0.656 0.464 0.595 40 36 36 0 0
9239.2188 -13868.1387 75.5437 0.685 0.599 0.414 39 37 38 0 0
9237.9756 -13866.7842 75.2805 0.751 0.531 0.393 35 34 37 0 0
9237.3799 -13865.5488 75.1587 0.760 0.466 0.452 40 37 37 0 0
9236.6953 -13864.2949 75.0175 0.760 0.466 0.452 45 38 40 0 0
9236.0098 -13863.0410 74.8762 0.760 0.466 0.452 39 38 36 0 0
9235.7363 -13861.8633 74.8251 0.876 0.158 0.457 40 36 35 0 0
9236.0967 -13860.8037 74.9123 0.679 0.273 0.681 40 36 40 0 0
9238.2285 -13860.0801 75.3867 0.270 0.500 0.823 39 38 40 0 0
9237.0098 -13858.7236 75.1288 0.645 0.003 0.764 30 28 31 0 0
9235.9971 -13857.4053 74.9159 0.570 -0.389 0.724 25 24 28 0 0
9236.3096 -13856.3379 74.9928 0.528 -0.799 0.287 35 33 37 0 0
9236.7021 -13855.2861 75.0871 0.455 -0.866 0.208 48 46 46 0 0
9238.1602 -13854.4404 75.4142 0.455 -0.866 0.208 53 48 51 0 0
9239.3955 -13853.5537 75.6927 0.496 -0.842 0.213 50 48 49 0 0
9240.8174 -13852.7041 76.0118 0.560 -0.771 0.304 50 49 48 0 0
9242.0439 -13851.8193 76.2885 0.739 -0.223 0.636 49 48 49 0 0
9237.7461 -13844.2285 75.4003 0.520 0.755 0.399 42 37 34 0 0
9236.1250 -13842.7803 75.0545 0.391 0.796 0.462 44 39 35 0 0
9231.5342 -13840.7363 74.0601 0.484 -0.743 0.462 45 39 35 0 0
9243.0928 -13839.6777 76.6108 0.903 0.409 0.133 40 35 31 0 0
9242.8203 -13838.5000 76.5597 0.780 0.626 0.002 40 38 33 0 0
9242.5293 -13837.3184 76.5047 0.920 -0.209 0.331 41 37 35 0 0
9242.7764 -13836.2461 76.5672 0.876 0.423 0.231 45 44 46 0 0
9243.0732 -13835.1846 76.6405 0.698 0.674 0.242 39 42 47 0 0
9243.3779 -13834.1240 76.7154 0.903 0.349 0.249 41 42 52 0 0
9239.9805 -13832.3027 75.9818 0.804 0.595 -0.007 53 53 60 0 0
9256.6318 -13816.7979 79.7619 0.121 -0.009 0.993 44 37 35 0 0
9255.7441 -13815.4912 79.5766 0.100 0.242 0.965 45 40 37 0 0
9243.0488 -13808.2305 76.8386 -0.085 -0.043 0.995 50 44 38 0 0
9240.9580 -13806.6445 76.3906 -0.061 0.094 0.994 49 45 39 0 0
9242.2041 -13805.7969 76.6711 -0.066 0.109 0.992 57 49 46 0 0
9242.6494 -13804.7725 76.7767 -0.070 0.075 0.995 51 44 42 0 0
9259.0127 -14083.5254 77.1397 0.115 0.228 0.967 72 65 63 0 0
9258.5068 -14082.3906 77.0366 0.142 0.197 0.970 60 59 57 0 0
9257.3301 -14079.0010 76.8025 0.131 0.009 0.991 55 49 45 0 0
9256.9014 -14073.4355 76.7497 0.172 0.064 0.983 50 47 46 0 0
9254.7656 -14065.5352 76.3380 0.227 0.028 0.974 59 57 52 0 0
9255.7148 -14064.4893 76.5554 0.126 0.376 0.918 45 43 40 0 0
9254.8076 -14062.2090 76.3724 0.174 0.323 0.930 58 54 53 0 0
9252.6221 -14060.9482 75.8996 0.149 0.136 0.980 80 77 73 0 0
9253.0957 -14059.8701 76.0123 0.187 -0.142 0.972 59 51 46 0 0
9253.8389 -14058.8115 76.1843 0.196 -0.251 0.948 55 49 44 0 0
9254.8223 -14056.6611 76.4176 0.193 -0.192 0.962 49 48 44 0 0
9254.9805 -14052.2334 76.4857 0.242 0.149 0.959 59 57 52 0 0
9254.9668 -14051.1221 76.4911 0.185 -0.010 0.983 69 63 56 0 0
9254.6025 -14049.9844 76.4194 0.159 -0.260 0.953 60 52 48 0 0
9255.9629 -14048.9785 76.7271 0.148 -0.186 0.971 57 50 47 0 0
9255.5508 -14047.8369 76.6448 0.158 0.064 0.985 64 58 56 0 0
9259.1240 -14037.0410 77.5146 0.319 -0.048 0.947 52 47 43 0 0
9259.7324 -14035.9844 77.6570 0.430 -0.018 0.903 48 43 39 0 0
9261.4785 -14035.0264 78.0494 0.797 -0.559 0.228 60 55 45 0 0
9257.9570 -14021.4248 77.3750 0.064 -0.259 0.964 48 42 39 0 0
9258.8857 -14020.4033 77.5876 0.064 -0.259 0.964 48 43 36 0 0
9258.4014 -14019.2500 77.4893 0.071 -0.070 0.995 51 44 35 0 0
9258.2520 -14018.1270 77.4648 0.080 0.185 0.979 51 43 33 0 0
9256.6152 -14002.4346 77.2219 0.225 0.800 0.556 69 59 49 0 0
9255.3662 -14001.1924 76.9557 0.250 0.911 0.329 73 59 48 0 0
9255.0332 -14000.0469 76.8908 0.193 0.956 0.221 64 54 47 0 0
9249.0518 -13982.6826 75.7018 0.292 0.934 0.205 50 42 40 0 0
9249.4414 -13981.6123 75.7960 0.090 -0.350 0.933 54 46 42 0 0
9248.8516 -13980.4277 75.6746 0.090 0.345 0.934 52 48 39 0 0
9254.7588 -13971.1182 77.0483 0.111 0.315 0.943 73 60 55 0 0
9253.4756 -13969.8467 76.7749 0.111 0.315 0.943 72 60 53 0 0
9253.7422 -13968.7666 76.8418 0.085 0.186 0.979 67 58 49 0 0
9247.6416 -13952.3682 75.6193 0.208 0.376 0.903 48 42 40 0 0
9246.9961 -13944.4580 75.5364 -0.014 -0.091 0.996 54 46 43 0 0
9246.3760 -13943.2539 75.4086 -0.018 -0.140 0.990 60 50 48 0 0
9247.6230 -13942.3105 75.6909 -0.012 -0.009 1.000 62 52 48 0 0
9247.3623 -13941.1572 75.6421 -0.003 -0.023 1.000 63 54 51 0 0
9247.7188 -13940.0898 75.7287 0.017 0.124 0.992 62 53 49 0 0
9247.4648 -13938.9365 75.6815 0.027 0.136 0.990 61 52 48 0 0
9246.4980 -13937.6807 75.4775 0.025 0.178 0.984 60 52 49 0 0
9245.6445 -13936.4395 75.2986 0.025 0.191 0.981 57 51 47 0 0
9247.4053 -13935.5752 75.6937 0.024 0.009 1.000 57 51 48 0 0
9247.0039 -13934.3994 75.6139 0.002 -0.097 0.995 58 51 48 0 0
9247.0322 -13933.2861 75.6287 0.011 -0.214 0.977 52 48 43 0 0
9246.0508 -13932.0244 75.4214 0.036 0.070 0.997 54 49 44 0 0
9246.6729 -13930.9971 75.5666 0.037 0.133 0.990 54 48 43 0 0
9248.8311 -13930.1982 76.0489 0.138 -0.059 0.989 55 49 46 0 0
9248.9893 -13929.1055 76.0919 0.138 -0.059 0.989 52 47 44 0 0
9249.0996 -13928.0049 76.1246 0.189 0.062 0.980 48 45 43 0 0
9248.4863 -13926.7969 75.9984 0.125 -0.066 0.990 51 47 48 0 0
9245.9033 -13925.2900 75.4397 0.046 0.071 0.996 56 50 49 0 0
9245.1729 -13924.0605 75.2879 0.059 0.198 0.978 50 46 43 0 0
9245.7891 -13923.0352 75.4315 0.011 0.170 0.985 53 48 46 0 0
9240.1807 -13897.4775 74.3866 0.132 0.193 0.972 64 54 50 0 0
9243.5664 -13896.9209 75.1379 0.035 0.165 0.986 66 56 49 0 0
9243.3223 -13895.7588 75.0928 0.019 0.144 0.989 64 55 55 0 0
9242.8047 -13894.5508 74.9877 0.011 0.102 0.995 60 52 51 0 0
9243.2920 -13891.2695 75.1199 -0.033 -0.066 0.997 54 47 45 0 0
9243.6494 -13889.0879 75.2154 -0.025 -0.036 0.999 51 44 42 0 0
9242.1660 -13885.4658 74.9153 0.003 0.167 0.986 49 44 40 0 0
9239.1074 -13878.1875 74.2951 -0.002 -0.002 1.000 48 42 40 0 0
9239.2305 -13877.0850 74.3308 0.022 0.076 0.997 50 44 40 0 0
9238.9131 -13875.9043 74.2696 0.001 -0.005 1.000 50 43 41 0 0
9239.1260 -13874.8174 74.3248 -0.014 -0.100 0.995 45 39 39 0 0
9239.3027 -13873.7246 74.3720 -0.010 -0.137 0.991 45 39 39 0 0
9239.6211 -13871.5342 74.4588 0.049 -0.385 0.922 48 42 39 0 0
9238.5156 -13867.9580 74.2417 0.736 0.673 0.076 43 39 37 0 0
9237.3096 -13866.6094 73.9858 0.736 0.673 0.076 44 41 37 0 0
9236.2607 -13865.2891 73.7644 0.754 0.646 0.118 43 39 35 0 0
9235.1553 -13863.9570 73.5304 0.754 0.646 0.118 43 36 36 0 0
9236.6514 -13863.1094 73.8669 0.760 0.466 0.452 41 35 34 0 0
9235.1914 -13861.7090 73.5553 0.574 0.499 0.649 35 31 29 0 0
9238.9834 -13861.2959 74.3952 0.204 0.277 0.939 33 30 30 0 0
9240.8145 -13860.5166 74.8050 0.270 0.500 0.823 35 32 33 0 0
9238.3242 -13858.9209 74.2677 0.696 0.266 0.667 43 40 37 0 0
9237.0596 -13857.5547 73.9989 0.570 -0.389 0.724 44 40 38 0 0
9236.5488 -13856.3311 73.8954 0.603 -0.770 0.208 54 49 43 0 0
9236.7627 -13855.2451 73.9507 0.415 -0.910 0.003 56 50 44 0 0
9237.4346 -13854.2480 74.1065 0.465 -0.882 -0.077 60 50 48 0 0
9239.5273 -13853.5254 74.5737 0.505 -0.848 0.158 64 56 52 0 0
9241.3535 -13852.7549 74.9825 0.403 -0.907 0.120 56 51 50 0 0
9243.3613 -13852.0225 75.4312 0.671 -0.193 0.716 58 52 49 0 0
9244.1445 -13851.0527 75.6114 0.715 0.110 0.690 55 45 43 0 0
9244.9121 -13848.9600 75.7964 0.510 0.235 0.828 48 41 39 0 0
9243.3936 -13839.6836 75.5314 0.881 0.434 0.190 38 33 29 0 0
9242.8770 -13838.4570 75.4265 0.690 0.723 0.026 39 33 28 0 0
9242.8555 -13837.3291 75.4303 0.886 -0.050 0.461 35 30 26 0 0
9242.6494 -13836.1650 75.3937 0.917 0.242 0.318 28 25 27 0 0
9242.1182 -13834.9326 75.2857 0.883 0.426 0.195 23 22 27 0 0
9241.3105 -13833.6436 75.1172 0.977 0.136 -0.163 26 25 31 0 0
9239.9189 -13832.2334 74.8206 0.804 0.595 -0.007 71 72 76 0 0
9261.0615 -13817.7021 79.5958 0.260 -0.818 0.514 44 37 35 0 0
9261.7676 -13816.7451 79.7588 0.609 -0.288 0.739 45 37 33 0 0
9249.5010 -13808.4766 77.1142 -0.072 0.074 0.995 47 39 33 0 0
9252.7041 -13808.0684 77.8243 -0.101 0.016 0.995 45 37 32 0 0
9252.4756 -13806.9014 77.7827 -0.101 0.016 0.995 46 37 32 0 0
9249.9121 -13799.6172 77.2718 -0.009 -0.172 0.985 94 90 93 0 0
9261.6543 -14082.5479 76.5993 0.130 0.246 0.960 71 68 65 0 0
9260.6543 -14079.1738 76.4034 0.129 0.025 0.991 64 63 59 0 0
9259.5879 -14072.4727 76.2177 0.172 0.064 0.983 64 59 56 0 0
9257.4268 -14065.6895 75.7905 0.143 0.002 0.990 63 60 55 0 0
9257.7920 -14062.3896 75.8961 0.195 0.352 0.915 73 68 64 0 0
9256.7266 -14061.2080 75.6691 0.195 0.352 0.915 71 62 57 0 0
9256.5479 -14060.0869 75.6380 0.225 0.115 0.968 70 60 54 0 0
9256.3125 -14058.9619 75.5944 0.170 -0.305 0.937 55 48 44 0 0
9257.4248 -14056.8232 75.8568 0.212 -0.194 0.958 57 54 50 0 0
9257.3320 -14055.7080 75.8446 0.200 -0.085 0.976 64 62 60 0 0
9257.4697 -14054.6104 75.8834 0.167 -0.065 0.984 45 46 43 0 0
9257.8613 -14053.5312 75.9782 0.183 0.164 0.969 43 42 38 0 0
9257.3477 -14052.3848 75.8732 0.242 0.285 0.927 64 62 58 0 0
9257.3379 -14051.2754 75.8793 0.131 -0.065 0.989 65 60 55 0 0
9261.7998 -14028.3906 77.0392 0.278 0.387 0.879 48 43 40 0 0
9260.2949 -14026.0420 76.7239 0.172 0.048 0.984 53 47 43 0 0
9263.2373 -14019.6787 77.4229 0.140 -0.363 0.921 39 37 34 0 0
9262.7227 -14018.5244 77.3179 0.177 0.143 0.974 41 38 34 0 0
9262.1104 -14017.3594 77.1911 0.155 0.087 0.984 59 53 48 0 0
9258.9082 -14002.6426 76.5930 0.198 0.763 0.615 55 49 40 0 0
9256.9092 -14001.3232 76.1603 0.221 0.852 0.475 55 48 40 0 0
9258.7188 -14000.4053 76.5678 0.190 0.667 0.721 53 45 36 0 0
9259.1309 -13998.2324 76.6755 -0.030 -0.245 0.969 49 43 33 0 0
9259.0039 -13997.1104 76.6557 -0.039 -0.156 0.987 46 41 34 0 0
9258.7344 -13994.8633 76.6130 -0.063 0.103 0.993 51 47 37 0 0
9261.5186 -13988.5264 77.2770 0.192 0.538 0.821 80 79 79 0 0
9246.4229 -13982.3418 73.9821 0.194 0.930 0.313 54 45 41 0 0
9253.4160 -13982.0430 75.5322 0.008 -0.323 0.946 57 49 42 0 0
9254.0723 -13981.0068 75.6854 0.013 0.247 0.969 56 51 42 0 0
9256.7783 -13980.2148 76.2904 -0.021 0.171 0.985 57 52 42 0 0
9262.4492 -13970.9258 77.6155 0.017 0.212 0.977 56 47 44 0 0
9260.5293 -13969.5791 77.2006 0.032 0.309 0.950 53 45 43 0 0
9255.0742 -13965.5605 76.0235 0.082 0.010 0.997 50 45 41 0 0
9253.8926 -13959.8467 75.8048 0.211 0.104 0.972 53 44 38 0 0
9252.5615 -13956.3320 75.5367 0.249 0.185 0.950 52 44 40 0 0
9251.0869 -13947.2178 75.2790 -0.011 -0.033 0.999 49 42 37 0 0
9250.9053 -13946.0771 75.2472 -0.002 -0.045 0.999 53 44 39 0 0
9251.8428 -13945.0928 75.4622 0.017 -0.112 0.994 55 45 42 0 0
9251.8418 -13943.9775 75.4703 0.008 -0.137 0.991 58 48 45 0 0
9253.0166 -13943.0283 75.7376 0.018 -0.010 1.000 64 52 47 0 0
9252.4795 -13941.8389 75.6277 0.010 -0.051 0.999 67 56 51 0 0
9252.4268 -13940.7168 75.6243 0.036 0.009 0.999 66 57 52 0 0
9252.3291 -13939.5889 75.6113 0.040 0.112 0.993 66 57 52 0 0
9251.7588 -13938.3926 75.4940 0.063 0.241 0.969 64 54 51 0 0
9250.9561 -13937.1621 75.3256 0.059 0.187 0.981 59 51 48 0 0
9251.8887 -13936.1826 75.5395 0.048 0.063 0.997 63 55 50 0 0
9251.5869 -13935.0234 75.4813 0.048 0.063 0.997 69 60 56 0 0
9252.1289 -13933.9873 75.6091 0.080 -0.233 0.969 65 59 55 0 0
9251.4990 -13932.7812 75.4789 0.154 -0.076 0.985 62 55 51 0 0
9251.8457 -13931.7168 75.5635 0.174 -0.015 0.985 63 55 49 0 0
9252.2178 -13930.6572 75.6539 0.178 -0.036 0.983 57 50 47 0 0
9252.2979 -13929.5547 75.6799 0.178 -0.036 0.983 61 56 55 0 0
9251.8896 -13928.3789 75.5984 0.183 0.074 0.980 47 43 42 0 0
9253.0088 -13927.4316 75.8532 0.079 -0.310 0.948 45 41 39 0 0
9252.2197 -13926.1982 75.6878 0.083 -0.122 0.989 54 50 48 0 0
9251.5840 -13924.9883 75.5563 0.046 0.059 0.997 56 51 49 0 0
9250.6865 -13923.7363 75.3670 0.013 0.146 0.989 60 54 52 0 0
9247.4473 -13899.7607 74.8305 0.026 0.137 0.990 61 53 51 0 0
9248.9355 -13898.8906 75.1664 -0.004 0.060 0.998 58 51 47 0 0
9248.8730 -13897.7627 75.1611 -0.005 0.119 0.993 59 52 47 0 0
9248.2822 -13896.5459 75.0394 -0.009 0.073 0.997 55 47 45 0 0
9247.7539 -13895.3389 74.9316 -0.002 0.085 0.996 54 46 45 0 0
9247.5801 -13894.1914 74.9018 -0.037 -0.165 0.986 48 42 41 0 0
9248.1924 -13893.1768 75.0450 -0.040 -0.109 0.993 46 42 40 0 0
9248.9473 -13892.1875 75.2196 -0.032 -0.007 0.999 44 42 41 0 0
9248.7383 -13887.6807 75.2071 -0.015 0.153 0.988 43 39 36 0 0
9247.0215 -13885.1445 74.8462 0.005 0.189 0.982 44 39 37 0 0
9246.6787 -13883.9648 74.7793 0.022 0.167 0.986 45 39 36 0 0
9245.6279 -13882.6602 74.5565 0.019 0.114 0.993 44 38 36 0 0
9244.4863 -13877.9756 74.3391 0.022 0.065 0.998 45 39 39 0 0
9244.3955 -13875.7178 74.3360 -0.015 -0.046 0.999 49 43 44 0 0
9244.5996 -13874.6328 74.3893 -0.015 -0.046 0.999 46 41 41 0 0
9244.8467 -13873.5576 74.4520 -0.019 -0.086 0.996 47 41 39 0 0
9244.7656 -13872.4219 74.4427 -0.003 -0.155 0.988 45 39 38 0 0
9248.8242 -13870.9248 75.3524 0.250 0.562 0.789 47 41 38 0 0
9246.8408 -13869.4414 74.9244 0.250 0.562 0.789 47 42 38 0 0
9244.9521 -13867.9727 74.5174 0.263 0.630 0.730 43 39 35 0 0
9243.6338 -13866.6064 74.2359 0.218 0.571 0.792 46 41 39 0 0
9241.3184 -13865.0537 73.7350 0.225 0.544 0.809 45 39 39 0 0
9241.7373 -13864.0078 73.8356 0.293 0.326 0.899 47 40 39 0 0
9245.1660 -13862.4082 74.6067 -0.005 0.020 1.000 44 37 34 0 0
9246.1885 -13861.4805 74.8400 -0.019 -0.005 1.000 43 36 35 0 0
9246.8818 -13860.4922 75.0010 -0.028 -0.064 0.998 40 36 33 0 0
9249.8379 -13858.8174 75.6679 -0.042 0.007 0.999 43 38 35 0 0
9237.6807 -13854.2422 73.0112 0.498 -0.860 -0.113 47 38 35 0 0
9238.8848 -13853.3486 73.2846 0.450 -0.891 -0.056 46 39 36 0 0
9242.7139 -13852.9658 74.1350 0.329 -0.871 0.366 43 39 35 0 0
9251.7500 -13853.5996 76.1303 0.100 -0.051 0.994 48 41 36 0 0
9251.2393 -13852.3838 76.0266 0.126 -0.064 0.990 46 39 36 0 0
9250.9355 -13851.2070 75.9680 0.147 -0.008 0.989 47 40 35 0 0
9246.3594 -13849.1904 74.9703 0.510 0.235 0.828 46 38 34 0 0
9240.1973 -13844.6064 73.6409 0.889 0.376 -0.260 41 34 31 0 0
9236.0908 -13841.5361 72.7548 0.428 -0.646 0.632 45 35 33 0 0
9237.1748 -13840.6260 73.0017 0.379 -0.604 0.701 45 37 34 0 0
9241.9482 -13840.4600 74.0597 0.576 -0.815 0.069 44 37 34 0 0
9242.4404 -13839.4365 74.1763 0.843 -0.309 0.440 42 37 34 0 0
9242.8574 -13838.3975 74.2764 0.690 0.723 0.026 42 36 33 0 0
9243.4844 -13837.4014 74.4226 0.535 -0.126 0.836 41 36 33 0 0
9243.7891 -13836.3418 74.4982 0.485 0.342 0.805 36 32 33 0 0
9242.6670 -13834.9893 74.2600 0.550 0.564 0.616 34 30 34 0 0
9241.5146 -13833.6299 74.0151 0.975 0.223 0.024 30 29 32 0 0
9239.0898 -13832.0068 73.4906 0.418 0.785 0.457 31 31 33 0 0
9234.6680 -13829.9678 72.5271 0.357 0.919 0.166 25 24 28 0 0
9234.7949 -13828.8652 72.5634 0.326 0.839 0.435 28 37 50 0 0
9261.9062 -13805.6094 78.7398 -0.117 -0.161 0.980 87 82 84 0 0
9262.3682 -13804.6025 78.8497 -0.113 -0.139 0.984 96 92 94 0 0
9257.9521 -13802.4932 77.8880 -0.030 0.107 0.994 95 91 92 0 0
9254.5186 -13800.6006 77.1422 -0.009 -0.172 0.985 98 94 95 0 0
9250.1504 -13798.4912 76.1912 -0.033 -0.471 0.881 96 92 94 0 0
9260.4092 -14087.9844 75.1510 0.074 -0.838 0.540 90 87 82 0 0
9263.9756 -14082.6572 75.9830 0.120 0.522 0.845 58 54 54 0 0
9263.5703 -14081.5312 75.9015 0.165 0.305 0.938 71 66 66 0 0
9262.4502 -14080.3623 75.6616 0.138 0.221 0.965 62 61 58 0 0
9260.3125 -14078.0264 75.2044 0.250 -0.390 0.886 63 59 57 0 0
9261.0205 -14076.9629 75.3696 0.270 -0.326 0.906 61 58 55 0 0
9260.1689 -14056.9961 75.3306 0.173 -0.151 0.973 66 63 61 0 0
9260.4785 -14053.6992 75.4242 0.240 0.317 0.918 60 58 55 0 0
9259.6250 -14052.5293 75.2435 0.240 0.317 0.918 56 51 48 0 0
9260.1553 -14048.1416 75.3942 0.178 0.116 0.977 64 57 54 0 0
9263.6689 -14028.5293 76.3218 0.349 0.362 0.864 41 34 34 0 0
9263.2939 -14027.3906 76.2470 0.340 0.192 0.921 47 42 39 0 0
9263.0059 -14026.2588 76.1915 0.432 0.266 0.862 53 46 40 0 0
9266.1221 -14019.9219 76.9312 0.183 -0.333 0.925 53 46 41 0 0
9265.6572 -14018.7744 76.8365 0.164 0.107 0.981 49 48 44 0 0
9265.1592 -14017.6221 76.7346 0.155 0.087 0.984 53 51 46 0 0
9268.3008 -14006.9033 77.5128 0.249 0.015 0.968 52 47 44 0 0
9267.4404 -14005.7119 77.3306 0.296 0.159 0.942 50 45 41 0 0
9266.4385 -13995.6748 77.1835 -0.063 0.103 0.993 55 50 38 0 0
9266.0791 -13990.1152 77.1457 0.052 0.264 0.963 84 81 80 0 0
9267.3369 -13971.4980 77.5649 0.009 0.152 0.988 54 47 45 0 0
9265.5391 -13970.1689 77.1757 0.026 0.261 0.965 52 44 43 0 0
9264.1025 -13968.8828 76.8663 0.031 0.326 0.945 51 43 40 0 0
9262.2441 -13967.5420 76.4638 0.031 0.326 0.945 52 44 40 0 0
9260.7500 -13966.2451 76.1418 0.036 -0.031 0.999 63 55 47 0 0
9258.8984 -13957.1328 75.7990 0.022 -0.067 0.997 60 54 50 0 0
9259.6357 -13956.1211 75.9705 0.017 -0.147 0.989 61 56 51 0 0
9258.6396 -13954.8789 75.7586 0.026 -0.130 0.991 65 57 54 0 0
9259.1592 -13953.8389 75.8818 0.026 -0.130 0.991 63 55 49 0 0
9259.8848 -13952.8271 76.0505 0.034 0.002 0.999 58 51 44 0 0
9258.8203 -13951.5732 75.8235 0.060 0.314 0.947 54 48 41 0 0
9259.3115 -13950.5303 75.9404 0.066 0.220 0.973 61 53 50 0 0
9257.1924 -13942.4639 75.5305 0.009 -0.036 0.999 61 50 44 0 0
9256.2529 -13941.2188 75.3314 -0.012 -0.000 1.000 65 54 49 0 0
9256.4746 -13940.1387 75.3886 -0.005 0.021 1.000 68 59 53 0 0
9256.2881 -13939.0000 75.3557 0.001 0.113 0.994 74 62 56 0 0
9257.7783 -13931.4375 75.7436 0.063 0.113 0.992 65 57 53 0 0
9257.2754 -13930.2520 75.6407 0.063 0.113 0.992 52 48 45 0 0
9256.4688 -13929.0195 75.4709 0.071 0.175 0.982 53 47 45 0 0
9256.8574 -13927.9668 75.5652 0.031 -0.061 0.998 58 50 46 0 0
9256.6719 -13926.8262 75.5325 0.030 -0.054 0.998 55 47 42 0 0
9256.2471 -13925.6504 75.4471 0.021 -0.005 1.000 57 49 46 0 0
9256.1807 -13924.5283 75.4407 0.054 0.099 0.994 62 54 51 0 0
9254.5215 -13923.1621 75.0826 0.007 0.085 0.996 64 57 53 0 0
9253.5879 -13921.9062 74.8847 -0.003 0.097 0.995 71 65 60 0 0
9254.1387 -13920.8770 75.0148 0.008 0.105 0.994 70 63 59 0 0
9253.4199 -13919.6514 74.8644 0.015 -0.059 0.998 69 60 57 0 0
9252.9482 -13918.4639 74.7685 0.006 0.077 0.997 68 59 56 0 0
9254.4062 -13916.4639 75.1073 0.021 -0.077 0.997 60 54 50 0 0
9254.5986 -13915.3809 75.1583 0.033 0.020 0.999 63 53 51 0 0
9253.3965 -13914.0771 74.9012 0.066 0.004 0.998 60 51 49 0 0
9253.3516 -13912.9551 74.8995 0.066 0.004 0.998 61 52 50 0 0
9250.9453 -13899.1797 74.4688 0.091 0.049 0.995 57 51 48 0 0
9250.8125 -13898.0410 74.4478 0.041 -0.238 0.971 55 51 47 0 0
9254.8877 -13894.2686 75.3810 0.023 -0.327 0.945 49 45 43 0 0
9256.6182 -13893.4512 75.7715 0.009 -0.335 0.942 45 43 43 0 0
9256.2891 -13892.2812 75.7072 -0.007 -0.196 0.980 42 41 40 0 0
9256.2070 -13891.1543 75.6975 0.017 -0.085 0.996 48 44 42 0 0
9255.0127 -13889.8350 75.4421 -0.030 -0.048 0.998 52 46 43 0 0
9253.6611 -13888.4863 75.1522 0.008 0.271 0.963 50 45 42 0 0
9252.1045 -13887.1006 74.8170 -0.028 0.162 0.986 48 43 40 0 0
9251.2510 -13878.0205 74.6957 -0.021 0.074 0.997 46 39 40 0 0
9250.7920 -13874.5869 74.6196 -0.039 -0.115 0.993 50 44 40 0 0
9249.4316 -13873.2217 74.3278 -0.014 0.086 0.996 49 44 38 0 0
9248.8848 -13872.0039 74.2154 -0.014 0.086 0.996 47 43 38 0 0
9251.9463 -13861.4004 74.9750 -0.006 -0.190 0.982 45 41 40 0 0
9253.0693 -13849.3398 75.3150 0.094 0.666 0.740 46 39 36 0 0
9247.0898 -13847.0400 74.0046 0.094 0.666 0.740 46 40 37 0 0
9245.5771 -13845.6201 73.6793 0.063 0.512 0.857 47 41 40 0 0
9242.2627 -13843.8389 72.9567 0.055 0.441 0.896 48 41 40 0 0
9247.9531 -13839.3740 74.2539 0.160 -0.002 0.987 48 41 39 0 0
9252.1143 -13839.1006 75.1798 0.733 0.614 0.292 47 39 37 0 0
9250.7695 -13837.7090 74.8917 0.487 0.844 0.223 44 36 34 0 0
9234.8213 -13831.0713 71.4005 0.458 0.672 -0.581 38 33 34 0 0
9230.6514 -13829.0811 70.4895 0.455 0.701 -0.550 35 32 32 0 0
9230.5527 -13827.9287 70.4762 0.448 0.886 -0.119 32 31 31 0 0
9259.3086 -13811.6426 76.9838 0.361 -0.037 -0.932 51 43 40 0 0
9259.6055 -13810.5947 77.0576 0.361 -0.037 -0.932 51 42 40 0 0
9259.5049 -13802.7842 77.0938 0.772 -0.071 0.632 100 96 97 0 0
9228.5029 -13792.3711 70.2883 -0.006 -0.738 0.674 99 96 96 0 0
9243.9482 -13790.2793 73.7336 0.122 0.263 0.957 92 87 90 0 0
9266.4160 -14068.4463 75.5035 0.003 -0.692 0.722 60 57 55 0 0
9264.9922 -14067.2500 75.1954 0.063 -0.066 0.996 61 58 56 0 0
9263.8906 -14062.7607 74.9838 0.061 0.310 0.949 52 49 47 0 0
9261.3799 -14060.3770 74.4423 0.077 0.183 0.980 64 61 57 0 0
9262.2139 -14059.3301 74.6360 0.101 -0.304 0.947 56 55 54 0 0
9262.0801 -14052.6875 74.6560 0.240 0.317 0.918 61 55 52 0 0
9267.3369 -14028.8291 76.0060 0.159 0.203 0.966 52 46 44 0 0
9267.9521 -14017.8613 76.2252 0.177 0.071 0.982 46 42 37 0 0
9268.6387 -14016.8252 76.3860 0.159 -0.097 0.982 45 43 40 0 0
9271.7070 -14011.6221 77.1085 0.682 -0.416 0.602 42 44 40 0 0
9272.0840 -14010.5605 77.2004 0.732 0.635 0.249 46 44 42 0 0
9271.3096 -14009.3818 77.0368 0.797 0.580 0.172 43 40 37 0 0
9270.9580 -14008.2461 76.9670 0.468 0.405 0.786 48 44 41 0 0
9269.8867 -14007.0342 76.7374 0.416 0.410 0.812 38 34 32 0 0
9269.0996 -14005.8516 76.5710 0.215 0.221 0.951 52 48 45 0 0
9267.7627 -14002.4043 76.2991 0.238 0.073 0.968 42 42 37 0 0
9268.6250 -14001.3936 76.4987 0.241 -0.088 0.967 35 35 34 0 0
9268.8164 -14000.3115 76.5496 0.241 -0.088 0.967 39 36 34 0 0
9274.3096 -13995.4062 77.8099 -0.055 -0.081 0.995 60 56 49 0 0
9269.2881 -13969.4990 76.8858 0.050 0.346 0.937 63 57 49 0 0
9267.4541 -13968.1641 76.4874 0.024 0.285 0.958 67 59 49 0 0
9266.4795 -13966.9365 76.2795 -0.017 -0.018 1.000 76 67 54 0 0
9266.8018 -13965.8730 76.3592 -0.028 -0.036 0.999 69 61 48 0 0
9262.2910 -13957.5439 75.4170 -0.082 -0.196 0.977 57 49 45 0 0
9263.6084 -13949.9707 75.7673 0.030 0.166 0.986 53 47 45 0 0
9261.8945 -13939.7627 75.4621 -0.004 0.102 0.995 69 58 49 0 0
9261.4893 -13930.8359 75.4390 0.063 0.113 0.992 55 48 42 0 0
9261.1396 -13927.4570 75.3864 0.038 -0.042 0.998 62 52 45 0 0
9261.2363 -13926.3623 75.4161 0.026 -0.092 0.995 55 47 42 0 0
9260.9580 -13925.2119 75.3629 0.029 0.061 0.998 53 46 41 0 0
9259.9932 -13923.9551 75.1574 0.006 0.078 0.997 52 45 41 0 0
9259.7383 -13922.8057 75.1092 0.034 0.163 0.986 55 49 45 0 0
9259.3291 -13921.6328 75.0268 0.032 0.134 0.990 56 47 44 0 0
9258.4023 -13920.3789 74.8298 0.017 -0.045 0.999 67 58 54 0 0
9258.3350 -13919.2578 74.8232 0.034 0.082 0.996 69 59 54 0 0
9258.5410 -13918.1787 74.8772 0.053 0.036 0.998 71 60 52 0 0
9258.1680 -13917.0088 74.8030 0.035 -0.140 0.990 68 61 56 0 0
9259.4600 -13916.1016 75.0976 0.027 -0.068 0.997 68 60 57 0 0
9259.5439 -13915.0039 75.1244 0.031 0.100 0.995 66 58 55 0 0
9259.0098 -13913.8086 75.0145 0.048 0.093 0.995 64 57 54 0 0
9258.7451 -13912.6562 74.9641 0.026 -0.087 0.996 65 57 51 0 0
9257.1729 -13905.7334 74.6660 -0.000 -0.000 1.000 57 49 44 0 0
9258.2705 -13895.9092 74.9841 0.058 0.127 0.990 65 55 51 0 0
9259.1201 -13894.9414 75.1806 0.040 -0.106 0.994 64 55 49 0 0
9259.9619 -13893.9746 75.3754 0.027 -0.274 0.961 46 41 37 0 0
9260.3076 -13892.9238 75.4604 0.039 -0.217 0.975 42 39 37 0 0
9261.4580 -13890.9014 75.7318 0.029 -0.094 0.995 47 42 38 0 0
9260.5479 -13889.6338 75.5384 0.052 0.274 0.960 50 44 42 0 0
9259.9541 -13888.4199 75.4154 0.005 0.189 0.982 48 41 38 0 0
9258.8018 -13887.1084 75.1686 0.005 0.189 0.982 49 42 41 0 0
9257.1514 -13885.7070 74.8115 -0.003 0.087 0.996 48 40 38 0 0
9256.6309 -13884.5020 74.7046 -0.003 0.087 0.996 48 42 40 0 0
9255.3965 -13873.1455 74.5148 -0.029 0.111 0.993 48 44 39 0 0
9255.3193 -13872.0166 74.5061 0.014 0.230 0.973 49 44 42 0 0
9254.7080 -13870.7900 74.3793 0.017 0.207 0.978 54 50 49 0 0
9260.4834 -13854.0811 75.7910 0.012 0.083 0.996 48 42 42 0 0
9251.9883 -13846.8389 73.9532 0.046 0.556 0.830 66 62 62 0 0
9244.7656 -13844.2822 72.3637 -0.038 0.288 0.957 69 64 66 0 0
9252.5576 -13839.1357 74.1379 0.733 0.614 0.292 55 50 50 0 0
9251.3379 -13837.7695 73.8764 0.487 0.844 0.223 53 47 45 0 0
9243.5752 -13835.0635 72.1677 0.382 0.900 -0.209 52 46 44 0 0
9236.7969 -13832.5488 70.6768 0.392 0.867 -0.307 53 47 45 0 0
9232.1025 -13830.4551 69.6471 0.407 0.872 -0.271 52 47 45 0 0
9226.2158 -13828.1074 68.3534 0.407 0.872 -0.271 53 47 45 0 0
9230.1523 -13827.7891 69.2326 0.346 0.920 0.183 50 46 41 0 0
9235.2959 -13826.5986 70.3872 -0.047 -0.243 0.969 55 48 44 0 0
9269.5107 -13819.3652 78.0622 -0.031 -0.831 0.555 59 54 51 0 0
9257.2559 -13812.2441 75.3861 0.398 0.307 -0.864 62 56 57 0 0
9261.6289 -13804.3164 76.4196 0.638 0.115 -0.761 98 95 96 0 0
9269.3418 -13804.9492 78.1327 0.723 0.528 -0.446 101 96 98 0 0
9238.9199 -13793.5596 71.4424 -0.063 -0.316 0.947 104 100 102 0 0
9248.6543 -13792.4277 73.6189 -0.068 -0.427 0.902 104 100 100 0 0
9247.3945 -13791.0156 73.3491 0.121 0.349 0.929 101 96 97 0 0
9310.5811 -14082.0371 84.1403 -0.129 0.026 0.991 76 75 72 0 0
9316.9932 -14081.3447 85.5781 -0.138 -0.028 0.990 87 86 84 0 0
9308.4785 -14077.6172 83.7038 -0.089 -0.090 0.992 88 84 84 0 0
9268.4180 -14068.5537 74.8215 -0.037 -0.546 0.837 70 69 68 0 0
9268.7236 -14067.4727 74.8978 0.032 -0.086 0.996 68 67 66 0 0
9275.7480 -14066.8408 76.4720 -0.071 -0.067 0.995 67 67 64 0 0
9269.4580 -14065.3203 75.0781 -0.068 0.117 0.991 73 71 67 0 0
9268.9590 -14064.1855 74.9751 -0.034 0.054 0.998 56 52 49 0 0
9268.5332 -14063.0557 74.8884 -0.031 0.041 0.999 47 43 42 0 0
9268.4082 -14061.9463 74.8689 -0.064 -0.018 0.998 66 63 59 0 0
9266.9424 -14047.5127 74.6494 0.255 -0.347 0.903 61 59 56 0 0
9267.1162 -14038.7051 74.7543 0.448 -0.057 0.892 55 51 49 0 0
9269.8428 -14029.0244 75.4361 0.133 -0.120 0.984 40 35 34 0 0
9269.3604 -14027.8799 75.3369 0.117 0.032 0.993 58 48 41 0 0
9269.7979 -14026.8184 75.4425 0.138 0.103 0.985 54 49 42 0 0
9269.8545 -14025.7227 75.4634 0.146 0.076 0.986 56 53 45 0 0
9272.2266 -14009.4434 76.1153 0.897 -0.022 0.441 55 52 48 0 0
9271.3906 -14007.1582 75.9458 0.765 0.187 0.616 42 39 39 0 0
9272.8633 -14006.2100 76.2819 0.427 0.343 0.837 55 54 49 0 0
9270.9434 -14002.7080 75.8792 0.330 0.150 0.932 36 36 36 0 0
9271.0205 -14000.5146 75.9128 0.338 -0.062 0.939 37 36 35 0 0
9272.9395 -13999.6201 76.3483 0.234 -0.551 0.801 35 32 33 0 0
9277.1797 -13995.6895 77.3250 0.069 0.053 0.996 42 38 36 0 0
9277.4131 -13992.4248 77.4016 -0.042 -0.490 0.871 48 43 40 0 0
9272.5439 -13990.7773 76.3262 0.035 0.043 0.998 48 43 39 0 0
9273.3848 -13986.4746 76.5462 0.080 0.292 0.953 52 45 40 0 0
9270.2275 -13969.5801 75.9675 0.012 0.182 0.983 62 54 45 0 0
9270.2061 -13964.0664 76.0039 0.001 0.060 0.998 65 57 47 0 0
9264.7871 -13947.8809 74.9146 0.009 -0.102 0.995 60 52 38 0 0
9267.8633 -13935.0547 75.6979 0.063 0.163 0.985 56 47 45 0 0
9265.6836 -13931.4170 75.2383 0.063 0.113 0.992 49 43 39 0 0
9264.9248 -13930.1982 75.0779 0.067 0.178 0.982 55 47 40 0 0
9264.8779 -13925.7646 75.1007 0.017 -0.033 0.999 63 55 50 0 0
9265.3809 -13924.7344 75.2207 0.050 0.159 0.986 55 46 42 0 0
9264.3994 -13923.4775 75.0108 0.076 0.208 0.975 57 47 42 0 0
9264.5635 -13922.3955 75.0556 0.037 -0.007 0.999 56 46 43 0 0
9264.0635 -13921.2109 74.9528 0.013 -0.307 0.952 65 55 50 0 0
9264.9912 -13920.2480 75.1672 0.005 -0.305 0.952 63 54 51 0 0
9266.3203 -13919.3486 75.4709 0.010 -0.329 0.944 63 54 50 0 0
9264.7764 -13914.6797 75.1610 0.044 0.203 0.978 55 50 47 0 0
9263.0176 -13907.7510 74.8199 0.006 0.113 0.994 52 46 43 0 0
9262.3213 -13906.5293 74.6736 0.012 0.126 0.992 54 46 42 0 0
9267.9980 -13890.8799 76.0590 0.030 -0.085 0.996 48 43 39 0 0
9262.6113 -13885.5078 74.8959 0.012 0.154 0.988 48 41 38 0 0
9262.2324 -13884.3320 74.8200 -0.013 0.081 0.997 58 49 46 0 0
9254.0410 -13872.8467 73.0759 0.003 0.308 0.951 50 44 41 0 0
9251.8252 -13871.3242 72.5924 0.002 0.303 0.953 50 45 43 0 0
9252.6006 -13870.3506 72.7728 0.047 -0.004 0.999 47 43 42 0 0
9252.5869 -13869.2314 72.7783 0.047 -0.004 0.999 46 39 38 0 0
9265.2842 -13856.0732 75.7135 -0.033 0.089 0.995 48 43 44 0 0
9271.0713 -13852.7832 77.0313 0.056 0.436 0.898 64 62 64 0 0
9254.1191 -13846.0918 73.2939 -0.058 0.267 0.962 77 74 74 0 0
9248.2119 -13837.0762 72.0418 0.084 0.484 0.871 68 63 63 0 0
9245.4668 -13835.3945 71.4411 0.068 0.436 0.897 63 57 56 0 0
9243.0215 -13833.7705 70.9069 0.048 0.392 0.919 63 54 52 0 0
9241.1816 -13832.2686 70.5071 0.031 0.310 0.950 62 58 56 0 0
9256.6729 -13819.8584 74.0610 -0.030 0.298 0.954 53 50 49 0 0
9249.0391 -13817.0938 72.3762 -0.041 0.343 0.938 56 52 51 0 0
9204.0586 -13805.0723 62.4170 0.426 0.550 -0.718 92 88 90 0 0
9205.5225 -13804.2412 62.7503 0.502 0.584 -0.638 84 82 80 0 0
9207.3896 -13803.5010 63.1729 0.205 -0.919 -0.338 76 72 73 0 0
9255.1836 -13806.1494 73.8310 0.304 -0.165 -0.938 96 92 94 0 0
9272.0254 -13805.4971 77.5988 0.413 0.256 -0.874 101 97 98 0 0
9247.5264 -13794.3477 72.2087 -0.025 -0.632 0.775 107 102 104 0 0
9249.9268 -13793.7793 72.7494 -0.025 -0.632 0.775 107 103 105 0 0
9251.5615 -13793.0371 73.1201 0.013 -0.566 0.824 102 100 101 0 0
9346.8154 -14083.0928 91.1544 0.656 -0.754 0.025 93 92 93 0 0
9329.4062 -14081.0000 87.2685 -0.026 0.477 0.878 92 91 92 0 0
9325.7461 -14079.7178 86.4581 -0.034 0.463 0.886 90 88 87 0 0
9320.6270 -14076.2090 85.3369 -0.103 -0.100 0.990 87 85 83 0 0
9332.7490 -14073.7949 88.0716 -0.081 -0.536 0.840 75 75 73 0 0
9337.6514 -14073.0566 89.1758 -0.066 -0.645 0.761 76 76 76 0 0
9283.1992 -14067.3145 77.0158 -0.072 -0.069 0.995 74 74 73 0 0
9326.0049 -14058.4795 86.6749 -0.025 -0.572 0.820 61 57 54 0 0
9329.4600 -14057.6748 87.4552 -0.014 -0.578 0.816 56 54 52 0 0
9333.3662 -14056.9092 88.3363 0.053 -0.459 0.887 70 68 64 0 0
9340.2686 -14056.3760 89.8872 0.108 -0.077 0.991 66 62 59 0 0
9272.1709 -14048.9941 74.6815 0.136 0.432 0.891 58 56 54 0 0
9271.4580 -14046.7393 74.5385 0.096 0.065 0.993 52 49 51 0 0
9272.7783 -14045.7451 74.8420 0.160 0.115 0.980 54 52 49 0 0
9269.5010 -14041.0801 74.1424 0.299 0.395 0.869 62 64 58 0 0
9271.1309 -14025.8105 74.6219 0.113 0.296 0.948 57 57 52 0 0
9273.3271 -14011.7227 75.2195 0.589 -0.582 0.561 49 44 40 0 0
9272.6289 -14009.4531 75.0799 0.605 0.128 0.786 61 57 52 0 0
9273.8682 -14007.3809 75.3733 0.332 -0.090 0.939 61 60 58 0 0
9273.7686 -14006.2715 75.3591 0.310 0.224 0.924 46 47 45 0 0
9273.2490 -14004.0195 75.2597 0.248 0.421 0.872 43 40 38 0 0
9273.2725 -14001.8223 75.2814 0.216 0.055 0.975 36 35 36 0 0
9279.8926 -13977.3340 76.9481 0.066 -0.494 0.867 54 53 49 0 0
9279.3623 -13976.1729 76.8381 0.048 -0.252 0.967 50 44 39 0 0
9274.9268 -13964.6387 75.9302 0.012 0.054 0.998 55 48 39 0 0
9275.9404 -13963.6709 76.1647 0.037 0.211 0.977 53 47 40 0 0
9274.9531 -13945.9512 76.0759 0.001 0.151 0.988 51 45 37 0 0
9273.0215 -13941.2754 75.6781 -0.024 0.014 1.000 47 40 38 0 0
9270.3076 -13925.4443 75.1884 0.028 0.148 0.989 57 47 41 0 0
9270.0840 -13924.3066 75.1467 0.041 0.222 0.974 56 46 42 0 0
9269.2080 -13923.0684 74.9597 0.022 0.034 0.999 62 54 51 0 0
9268.0742 -13921.7891 74.7152 -0.005 -0.308 0.951 74 67 63 0 0
9269.3760 -13920.8857 75.0136 -0.005 -0.308 0.951 70 61 58 0 0
9270.3682 -13919.9375 75.2431 -0.003 -0.302 0.953 65 56 52 0 0
9267.8389 -13911.8066 74.7371 -0.009 -0.049 0.999 50 41 38 0 0
9268.6289 -13909.7246 74.9297 -0.011 -0.107 0.994 50 42 39 0 0
9268.5840 -13908.6123 74.9279 -0.007 -0.018 1.000 57 50 45 0 0
9268.4961 -13907.4932 74.9166 0.002 0.000 1.000 57 48 42 0 0
9268.6016 -13906.4062 74.9486 -0.007 -0.023 1.000 54 44 40 0 0
9267.0938 -13905.0527 74.6208 -0.021 0.018 1.000 54 43 36 0 0
9272.0322 -13891.5322 75.8286 -0.024 -0.137 0.990 47 39 35 0 0
9271.8350 -13890.3955 75.7929 -0.001 0.152 0.988 47 39 36 0 0
9270.3096 -13889.0254 75.4612 -0.011 0.147 0.989 48 42 39 0 0
9268.2314 -13865.4424 75.1721 -0.013 0.182 0.983 54 48 44 0 0
9271.2988 -13863.8145 75.8717 -0.014 0.064 0.998 49 46 43 0 0
9260.2139 -13843.9170 73.5364 -0.098 0.074 0.992 68 64 62 0 0
9266.5537 -13820.8223 75.1300 0.014 0.354 0.935 56 52 51 0 0
9203.6465 -13806.0723 61.1426 0.325 0.909 -0.261 72 69 68 0 0
9198.4287 -13803.7871 59.9904 0.440 0.602 -0.667 76 75 76 0 0
9202.1572 -13803.4463 60.8286 0.502 0.584 -0.638 81 79 80 0 0
9240.3574 -13806.1523 69.3689 0.353 0.185 -0.917 86 83 84 0 0
9258.0518 -13804.5029 73.3467 0.589 -0.172 -0.790 99 98 99 0 0
9259.9902 -13803.8262 73.7861 0.646 0.181 -0.742 99 96 97 0 0
9266.3398 -13804.1504 75.2067 0.835 0.116 -0.538 104 100 101 0 0
9267.9570 -13803.4092 75.5747 0.588 -0.504 -0.633 102 99 100 0 0
9251.3574 -13798.5225 71.8913 0.363 0.927 0.092 100 98 100 0 0
9348.4658 -14083.1699 90.4512 0.458 -0.818 0.349 146 145 147 0 0
9349.3799 -14082.1777 90.6641 0.432 -0.877 0.209 147 147 150 0 0
9334.1055 -14080.2041 87.2453 0.378 0.726 -0.574 143 144 147 0 0
9331.1504 -14078.9648 86.5901 -0.050 0.395 0.917 131 133 136 0 0
9320.8262 -14068.7354 84.3459 -0.026 -0.775 0.631 98 98 101 0 0
9325.6094 -14067.9951 85.4265 -0.031 -0.740 0.672 93 93 95 0 0
9330.8633 -14067.2930 86.6128 -0.021 -0.630 0.776 92 91 91 0 0
9337.2871 -14066.6797 88.0615 -0.035 -0.488 0.872 77 76 75 0 0
9340.4443 -14065.8457 88.7773 -0.040 -0.510 0.859 79 76 75 0 0
9332.4346 -14057.8730 87.0365 -0.023 -0.476 0.879 71 70 71 0 0
9336.7363 -14057.1387 88.0090 0.033 -0.284 0.958 72 70 70 0 0
9327.7061 -14055.3955 85.9919 -0.050 0.548 0.835 69 66 63 0 0
9320.3496 -14053.7686 84.3506 -0.044 0.596 0.802 66 64 60 0 0
9306.3691 -14051.6182 81.2240 -0.019 0.734 0.679 64 63 61 0 0
9273.9326 -14042.5156 74.0005 0.209 0.312 0.927 61 61 60 0 0
9271.5996 -14041.2256 73.4857 0.299 0.395 0.869 54 53 52 0 0
9273.4932 -14040.2822 73.9184 0.148 0.103 0.984 52 52 49 0 0
9275.4189 -14023.9785 74.4731 0.306 0.118 0.945 51 51 47 0 0
9275.7949 -14015.2324 74.6229 0.414 -0.209 0.886 62 53 48 0 0
9274.2480 -14011.7842 74.3010 0.745 -0.464 0.480 54 43 42 0 0
9276.7139 -14010.9346 74.8616 0.357 0.310 0.881 47 39 38 0 0
9276.0059 -14009.7656 74.7112 0.358 0.112 0.927 56 53 50 0 0
9275.7861 -14007.5469 74.6784 0.332 -0.090 0.939 53 51 49 0 0
9276.7539 -14006.5498 74.9033 0.183 0.089 0.979 45 45 44 0 0
9277.0723 -14005.4854 74.9829 0.221 0.333 0.916 40 39 36 0 0
9275.6748 -14004.2422 74.6782 0.248 0.421 0.872 53 52 47 0 0
9275.4834 -14003.1230 74.6433 0.214 -0.010 0.977 51 49 45 0 0
9276.0967 -14002.0908 74.7890 0.219 0.029 0.975 44 41 40 0 0
