ply
format ascii 1.0
element vertex 735
property float x
property float y
property float z
property uchar diffuse_red
property uchar diffuse_green
property uchar diffuse_blue
end_header
8815.242964209447 -13950.36506603895 71.44941658990994 95 97 104
8817.525259122485 -13949.218077515774 71.86322479325312 76 80 87
8816.22033179388 -13947.683062638289 71.64472118434418 55 57 64
8815.149084838396 -13946.171907245885 71.46741961156292 91 91 98
8814.740626611634 -13944.73242627466 71.4069465124064 103 106 110
8813.6869500256 -13943.220746888766 71.23276205668601 94 98 103
8818.164138150796 -13942.325279844563 72.03334280171975 54 55 59
8819.311186118824 -13941.061642981922 72.24699271123505 110 114 119
8824.591181039305 -13940.26654827998 73.18897066817675 97 102 109
8827.746728385859 -13939.236969354952 73.75651559717383 111 116 122
8824.624847951496 -13937.49381809001 73.2178374418737 112 116 120
8817.869637956712 -13935.328629065707 72.03895997186551 107 115 118
8811.644982392565 -13933.21577709168 70.95364390288233 69 72 74
8804.768330351257 -13931.018748533934 69.75351459509409 42 40 40
8804.529551163656 -13929.589175111543 69.72302021520674 47 43 36
8805.132098692246 -13928.258250791105 69.84076151900742 52 47 37
8787.452671457026 -13924.764692271352 66.73750796880856 54 46 38
8787.146625015173 -13923.315005611947 66.69526256882092 50 43 36
8786.531823568348 -13921.827931774977 66.5986265521494 51 46 39
8788.01520390938 -13920.592491236515 66.87162863483796 52 48 39
8781.125901100837 -13918.345893713096 65.66966753266568 53 48 38
8792.313151246284 -13918.289409870635 67.65208151979628 55 49 39
8794.352456081886 -13917.128702666932 68.02295460657754 56 50 43
8809.787803341362 -13917.618399195257 70.7534555109623 59 51 45
8811.675621821012 -13916.453260267757 71.09752768790551 56 50 43
8812.329885865873 -13915.13723511845 71.22430809065887 61 52 44
8813.664745536214 -13913.907125513304 71.47095403011431 64 52 45
8815.393533243156 -13912.728267912686 71.78696542745988 61 51 46
8812.428461715655 -13910.958696254223 71.27628596535055 61 51 47
8815.603623456038 -13909.964946000906 71.84700986625569 62 52 48
8821.042817126978 -13903.699001517136 72.86238000611617 55 50 44
8824.903260152092 -13902.813278933514 73.55361691850194 27 29 27
8826.860762413542 -13901.682121365584 73.90975368219542 42 45 47
8835.504910288739 -13901.438400054789 75.44317499331494 21 21 26
8825.614972505771 -13898.74116568299 73.71333977642429 24 24 24
8817.581718858299 -13896.278888338717 72.31049637146954 34 34 32
8808.92598712585 -13893.722250288458 70.79815336274233 45 41 38
8802.873617903388 -13891.505490420466 69.74421802311613 53 46 43
8803.488259840879 -13890.185112068259 69.86401487976953 60 51 43
8778.220088231416 -13885.336862794109 65.42751926659285 62 52 42
8775.400213095645 -13883.530279405648 64.94286869246757 58 50 42
8773.004522419904 -13881.778299964964 64.53291615611565 60 54 48
8764.986835951371 -13876.386995759774 63.15702393823773 57 56 58
8767.824569071423 -13866.791205149124 63.73902001182499 59 55 54
8808.732268445985 -13867.094236098315 70.98377698549399 59 53 44
8818.355502654065 -13857.356049614446 72.76907721388822 70 70 73
8819.433899160524 -13856.126809138024 72.97028063474704 33 36 43
8785.606622211557 -13826.87278882309 67.21903075521459 46 43 40
8828.56124187278 -13797.834788004146 75.06877488011025 42 40 43
8852.513831331084 -14115.740906312436 75.30019002731974 49 45 43
8856.162452893193 -14114.483754102872 75.95941328154287 60 62 63
8859.068829028447 -14113.208771280084 76.48678623593773 85 89 94
8854.695411200573 -14111.710641511809 75.72139609600825 115 118 121
8855.10699374299 -14110.359042451824 75.80573886541738 116 119 123
8856.056842424252 -14109.02545858564 75.98565571057044 96 98 101
8856.13039124864 -14107.664037636689 76.00996519693925 79 81 85
8858.393531656971 -14106.376774908116 76.42304947730153 103 106 108
8859.657037085044 -14105.058000684327 76.65862337911442 110 113 117
8859.540390578353 -14103.692340450396 76.6491444054278 127 127 129
8857.800598046455 -14102.268335651828 76.35149416659044 133 134 137
8861.175919278488 -14101.028669445932 76.96197076020269 119 121 124
8859.859715233564 -14099.619119917832 76.73953023631009 113 115 120
8848.56530142462 -14097.83036205505 74.74574054996917 63 64 70
8845.631236551824 -14096.348349649674 74.2361851124876 96 102 103
8841.525614514267 -14094.816534738087 73.51869635352116 104 106 111
8837.904447893812 -14093.298522337074 72.88724697780638 58 56 54
8832.037280789547 -14091.684738379872 71.85716960030675 48 48 43
8843.523092894173 -14090.777178178532 73.90723768826257 49 47 39
8848.368630514939 -14089.607204461563 74.77859566618642 50 45 35
8837.736952121939 -14087.78619695789 72.9029296949935 48 44 37
8840.31747702565 -14086.52103903523 73.37227378159061 45 41 37
8850.800137992925 -14085.605457479915 75.2440124319548 41 37 35
8850.405035581018 -14084.220020369843 75.18517732409575 91 88 87
8852.882944743644 -14082.963708306823 75.63619975121588 120 121 125
8847.335806328003 -14081.343095194963 74.6630910773913 125 126 130
8847.127030142994 -14079.96313452607 74.63734616169997 127 128 131
8843.906909743013 -14078.440935352588 74.07725146410934 127 129 130
8843.431390959706 -14077.045607482552 74.00419707879458 128 130 132
8842.013009547192 -14075.603924257763 73.76385088059487 133 137 138
8840.180309567479 -14074.139970533748 73.45000795093141 136 139 142
8838.179412606985 -14072.665174571159 73.10634310827375 125 127 130
8837.965706908517 -14071.277862896151 73.07978218751181 135 137 139
8839.455737401511 -14069.977334243864 73.35548972232257 133 137 140
8840.626334613136 -14068.662214599022 73.5745111256089 140 141 145
8840.911293568273 -14067.302168516488 73.63640543824806 141 140 144
8838.263782509586 -14065.786708834874 73.17808525692858 134 135 138
8830.431582886444 -14063.988857687424 71.80007419920844 66 90 98
8825.561755708224 -14062.341849736558 70.94763304060831 53 82 90
8822.376429224365 -14060.781169479482 70.39404334458345 59 77 84
8825.43265902163 -14059.564354335193 70.94758575180897 66 90 100
8831.382915072161 -14058.514917327473 72.0144073068335 69 90 97
8830.99148284645 -14057.111211811856 71.95637557743153 58 67 70
8830.749771629746 -14055.715604853842 71.92490271424505 49 48 39
8833.675050586222 -14054.50471500976 72.45510857404317 49 48 39
8835.159410560207 -14053.212524873505 72.72973890917449 63 62 55
8836.129736506327 -14051.891556615192 72.91319327121353 72 75 77
8847.801303190945 -14049.847935897255 75.00566605644852 60 64 69
8853.453791944525 -14048.82640484494 76.01930391166277 54 59 61
8843.724265430359 -14046.852097394218 74.30533683922907 63 64 69
8837.679271805455 -14045.097283937444 73.2447989494255 82 81 82
8842.794411342671 -14044.045948740599 74.16312303319671 68 66 60
8842.344518002208 -14042.642869709483 74.09468969093179 66 62 58
8842.11449026847 -14041.253472620581 74.06524333933329 54 53 45
8842.86719801026 -14039.928358059164 74.21003172164458 63 58 49
8840.573220225897 -14038.40185588433 73.8146732938145 129 131 130
8840.646202788106 -14037.031057793241 73.83895942779537 137 139 144
8835.186525515417 -14035.28548900502 72.88243514396349 138 139 143
8835.212474707852 -14033.90792571213 72.89841289221938 137 141 144
8835.656000985744 -14032.55921306781 72.98841257375518 145 145 149
8837.825308375743 -14031.33142658405 73.38431943862558 146 147 154
8836.284508416771 -14029.845262781593 73.12256981699643 145 146 150
8833.052106741236 -14028.236784611763 72.56100276321754 107 110 113
8833.175863268221 -14026.864752430301 72.59432847599678 133 135 136
8831.921064176036 -14025.393036661648 72.38332070431257 154 157 159
8830.290786905216 -14023.89218319505 72.10578003547656 154 157 161
8830.174566986383 -14022.50077383015 72.09658932027398 157 158 160
8834.393514704961 -14021.431732798617 72.85568498452344 156 156 159
8835.574304759732 -14020.140203866238 73.07632444226002 153 155 157
8832.474774151045 -14018.526046546785 72.53843338931675 152 153 158
8829.761368240635 -14016.937233418268 72.06899985108181 138 138 143
8831.691693430628 -14015.702651585105 72.42246331646966 105 108 112
8822.544072886518 -14013.609503933627 70.81295989403539 96 98 102
8820.021847149179 -14012.023560508422 70.37750125267895 62 62 61
8823.20017765856 -14010.88492967367 70.95211255016079 50 47 42
8818.571265642522 -14009.128042170782 70.14342095280263 49 45 38
8829.245788021437 -14008.59526235555 72.04612171346064 51 46 41
8834.876032457958 -14007.667776158765 73.05502800048235 53 48 41
8839.050223778178 -14006.62875883151 73.80591674509522 90 91 90
8830.042072305394 -14004.50916697493 72.2214339652079 77 81 84
8829.578540078202 -14003.087236237629 72.15073065006509 93 94 97
8829.190923293085 -14001.671013699486 72.09348068919478 96 98 102
8831.388371529778 -14000.472392054458 72.49415141653371 91 92 95
8829.91648360981 -13998.964576457325 72.2448353810695 78 80 81
8828.84527704385 -13997.489116710058 72.06650770951202 88 91 95
8828.96185516779 -13996.11480668769 72.09857563856964 83 88 90
8829.055853217042 -13994.73865578657 72.12664321988503 86 90 93
8827.199755500207 -13993.191544512048 71.80932528786308 84 87 88
8830.452462173487 -13992.093457600033 72.39682885328305 82 87 88
8830.156383927406 -13990.683659953564 72.35580467180738 83 86 89
8826.65821924166 -13988.986166948045 71.74770984885713 85 87 89
8825.201168014164 -13987.468459803458 71.50111389199282 81 81 84
8823.921399082385 -13985.96492254133 71.2859280884584 76 79 83
8821.097586039728 -13984.318044552821 70.79733923157285 76 77 82
8820.23867013145 -13982.848886618112 70.65671233422216 77 79 83
8818.851404488245 -13981.329395077631 70.42254143098376 75 76 81
8816.581322799651 -13979.725297861009 70.03207262665646 74 75 80
8812.840296250859 -13977.979326893143 69.38118828970038 75 74 79
8814.357652868981 -13976.728102150182 69.66134868020094 63 60 59
8813.772400109914 -13975.277634349788 69.56923456038122 55 49 40
8812.657860070585 -13973.775347667164 69.38342195765091 53 50 40
8807.06475177124 -13971.836952997304 68.40475949532308 51 48 41
8811.308281855087 -13970.852159743967 69.16753183760774 62 59 60
8811.282151879395 -13969.452980241584 69.17442638057153 80 82 87
8806.915900606644 -13967.62390562508 68.4130405620873 86 89 97
8803.383756937781 -13965.872146687801 67.79935070107977 81 88 96
8804.881396712668 -13964.62048292061 68.0760083637947 81 84 90
8799.63406244278 -13962.68930888441 67.15877714139401 37 39 44
8798.94673764123 -13961.214868929112 67.04870875589863 37 35 37
8802.611558496437 -13960.184996480399 67.70893805874763 46 41 43
8805.461064148194 -13959.075971221971 68.22482850867132 48 42 41
8806.811164060899 -13957.815224730637 68.47532330796342 55 47 44
8811.075605522079 -13956.860400872418 69.24156722192089 51 45 40
8814.113899871123 -13955.782444117911 69.79077467744104 28 28 28
8817.782676441744 -13954.77514467319 70.45152124850192 55 55 60
8818.924403541982 -13953.503917171538 70.66504647728328 62 64 67
8821.201116590282 -13952.355657139651 71.07939786339206 66 69 74
8817.680333617218 -13950.586034613403 70.46787568510841 65 72 76
8822.494221440473 -13949.714850988412 71.33114059283335 71 77 83
8817.08484229401 -13947.735427389882 70.38549007899178 76 84 89
8816.667776706674 -13946.29639390894 70.3231912438905 78 81 89
8815.308092059204 -13944.752745970442 70.09412447129986 86 92 95
8816.760446637352 -13943.519467425218 70.36257717742672 78 85 91
8819.12464570874 -13942.389940299692 70.7923321380873 76 82 86
8820.410784217067 -13941.14240268502 71.03134339127364 88 94 101
8825.316708299382 -13940.305677380897 71.91069135197795 76 84 90
8828.453572644246 -13939.27433120749 72.47704354898043 94 98 104
8825.338122997486 -13937.532130036445 71.93737772214774 101 107 112
8815.822436360817 -13935.049560388068 70.26563139956782 91 95 99
8813.291064910136 -13933.362301752624 69.82938204421666 58 59 61
8808.562101252843 -13931.415932204196 69.00446071649814 40 36 33
8805.583131266378 -13929.668020294584 68.48911288607665 47 44 36
8808.145761457014 -13928.568300033692 68.95391002141257 52 48 40
8797.908188544128 -13925.956973505787 67.15484896743465 52 46 39
8799.260441980168 -13924.711429257139 67.40560134070715 45 42 35
8796.605791515487 -13922.988071336202 66.94772640596074 48 44 38
8799.504012681004 -13921.929466297606 67.47186429012596 51 46 39
8800.40249821167 -13920.632680175668 67.64234342557037 54 46 40
8810.70724234916 -13920.481700500226 69.47613524718409 55 48 40
8807.384281692215 -13918.676999351494 68.9000821960445 55 49 39
8807.12547291353 -13913.043002548406 68.90052987226561 57 52 43
8810.01924610121 -13912.0060568344 69.42369808864726 58 52 46
8813.239644376436 -13911.014209004585 70.00457975164004 59 51 46
8823.88182003225 -13906.800513089056 71.9318907956547 66 56 46
8817.347624141907 -13904.563430196107 70.78833359584517 66 57 48
8828.865451430964 -13904.670776253259 72.8357234822174 63 56 49
8835.464836690555 -13904.149026778285 74.01363035144935 44 39 34
8827.020216322688 -13901.654924555902 72.53245246273818 44 45 43
8825.053699039176 -13900.006941862957 72.19633009804963 28 25 27
8822.079187480269 -13898.222220840089 71.68207875937945 42 38 36
8811.864707930728 -13895.465600449903 69.88832300017943 45 40 38
8803.715926656963 -13892.972865678628 68.45974444216941 50 45 40
8777.639730234729 -13878.10248382019 63.94513922117149 77 73 71
8772.2977451142 -13875.931694064482 63.01305225543523 73 70 69
8766.804212609057 -13873.732375687387 62.05425015047314 70 68 68
8765.184713139512 -13872.07461410134 61.779920437925625 69 69 67
8759.971908517513 -13869.903124843782 60.870812084514746 73 72 71
8764.5043765997 -13869.11846829239 61.68331691724198 74 69 68
8771.245159298842 -13868.657143514976 62.885870807713864 55 48 45
8782.675172484143 -13868.881712127897 64.91667732320718 50 42 39
8780.983601479507 -13867.218526106219 64.62957549775847 39 35 35
8781.938334116758 -13865.938600235251 64.8099182750899 40 39 36
8815.24565664186 -13867.998813853357 70.71613927424274 46 44 37
8830.358746930062 -13798.098902985705 73.98036045431958 43 39 42
8804.9628613557 -13727.42767728693 70.04702132680731 37 32 35
8787.208583003927 -13722.225486541172 66.93259649754097 30 25 31
8772.578667412477 -13691.962558515215 64.58051121146215 43 44 45
8777.106923296904 -13691.562824390914 65.38909186818633 39 38 41
8869.442550747655 -14114.86160705759 76.94278373619508 58 61 59
8871.481804887579 -14113.56882073301 77.31745901043597 73 78 79
8871.640996916025 -14112.220078507395 77.35698654584095 81 83 87
8870.002398207802 -14110.814252525934 77.07606184320906 92 93 96
8871.293772338731 -14109.501495271887 77.31739804967494 92 92 95
8873.940821120868 -14108.235409584217 77.80035040716538 84 83 86
8877.090426122584 -14106.98982300743 78.37284489000233 95 95 96
8875.428525897743 -14105.582339366007 78.08777430363746 129 129 131
8873.189546711672 -14104.15231703837 77.69987538635395 157 156 158
8871.926728262439 -14102.75427532224 77.48596685264113 147 149 153
8870.776666741733 -14101.358641298291 77.29216665219208 149 150 152
8868.35490253482 -14099.91417836454 76.87175785319319 119 120 123
8855.769090318314 -14098.081904055007 74.64016599259598 96 97 98
8851.066127862245 -14096.53635853057 73.81337463263681 60 62 63
8847.273471051563 -14095.020182284592 73.14883941718331 58 58 57
8848.409680709108 -14093.695249196982 73.36257761198661 61 61 52
8852.554007590546 -14092.493609279865 74.11227724568168 49 47 39
8857.513720935665 -14091.331010550184 75.00720938954828 47 45 39
8854.115317114973 -14089.825404178255 74.41296495185624 46 42 36
8852.088344465436 -14088.373519868095 74.06309127292747 43 39 34
8860.652176421674 -14087.375945831745 75.60003291561121 37 34 32
8867.678185989682 -14086.322343862963 76.86292040523283 52 45 42
8858.761414340748 -14084.568859833316 75.28563757635126 102 101 104
8853.522295411041 -14082.969529458152 74.36358032275268 81 83 93
8850.34549999792 -14081.457684348383 73.8089464506903 79 82 87
8849.814697015689 -14080.064566309606 73.72566896738009 68 75 79
8851.883658176535 -14078.793274216087 74.10547016397211 104 110 112
8853.270321137768 -14077.492083935542 74.36372103513354 106 111 115
8852.840195693127 -14076.104641752916 74.29836867928358 92 99 103
8853.8927886532 -14074.789455901802 74.49710021841761 72 76 75
8850.530444911767 -14073.255760803842 73.90952422321602 74 80 81
8849.197302826506 -14071.819974270387 73.68337318563125 100 104 108
8852.287417963407 -14070.608561159193 74.24496666699542 101 107 111
8851.110961655924 -14069.180225742199 74.04672412801558 103 104 108
8853.30492459812 -14067.927119866812 74.44868950299141 102 104 109
8845.892148422556 -14066.166508307093 73.13994264975527 110 112 114
8838.247895635706 -14064.383554179467 71.79005910281562 64 82 90
8837.055308094597 -14062.941752156768 71.58904791893148 35 70 79
8840.391167860167 -14061.747959844537 72.19436396417522 35 70 78
8832.825321531076 -14059.950377174868 70.858597206144 33 71 80
8839.220162772384 -14058.930841172374 72.00853462604717 41 73 83
8845.820301026006 -14057.931508584881 73.19495305759531 53 66 68
8851.674721376385 -14056.897835229507 74.2485367490694 51 48 39
8857.210892824443 -14055.853318773525 75.24539935418986 49 48 40
8862.161646050778 -14054.781530605027 76.13798398069788 67 69 67
8864.170702084824 -14053.54044338989 76.50684273891926 74 78 79
8864.98776299565 -14052.229948335778 76.6634909632907 81 84 85
8853.386880842421 -14050.161638905045 74.60966267365126 63 68 70
8855.471650218109 -14048.923311049188 74.99201424145798 56 61 64
8848.044623245134 -14047.093796646677 73.68129107498036 78 79 81
8840.360208295793 -14045.238126785462 72.324837202421 88 87 83
8843.817848583816 -14044.082753566156 72.9515757328191 65 61 54
8842.826011649942 -14042.64523822735 72.78636509886948 59 55 46
8839.82285905327 -14041.075430609088 72.26320556043012 59 53 46
8842.317978389681 -14039.863207364446 72.71859339841461 65 58 52
8843.072020162996 -14038.538608328801 72.86410829876577 104 105 106
8842.69188278116 -14037.138880323126 72.80778048430105 96 99 102
8839.052482790215 -14035.51775452417 72.17146756728737 103 107 112
8839.156227486053 -14034.147897318811 72.20127116980811 97 98 100
8839.400024458486 -14032.787824792207 72.25599481262991 116 117 121
8840.216758679766 -14031.468014858592 72.41266145121493 117 116 123
8838.912531917831 -14029.999890674082 72.19193845087939 115 115 123
8837.791143332899 -14028.54299855386 72.00376125150648 116 116 121
8837.93669688579 -14027.175495568075 72.04100873326068 111 113 115
8837.950368755308 -14025.798604759424 72.05479143294194 97 97 101
8838.043551684888 -14024.427513111103 72.08271983010414 76 69 68
8839.21720407731 -14023.136203676442 72.30286492841273 72 72 73
8839.242633130294 -14021.760976323598 72.31873269261366 102 106 107
8839.458545593663 -14020.4000548846 72.36848568261388 104 106 108
8837.259928280848 -14018.856489128171 71.98872705172076 111 113 115
8833.246402284123 -14017.171278345257 71.28615704283753 95 94 99
8829.199817841098 -14015.478146102263 70.57775104506857 68 69 72
8826.488810336146 -14013.883433713854 70.1069472917929 63 63 66
8824.936313467852 -14012.375923782249 69.84223019502237 59 58 59
8831.298841176584 -14011.492224350808 70.98528039280266 62 54 50
8826.819640367381 -14009.752400949836 70.20003294492349 65 56 49
8831.551392389836 -14008.747234552155 71.05297501059778 66 58 50
8835.421746847911 -14007.67849924038 71.75267320140816 61 56 48
8840.431909341794 -14006.708055875819 72.65502810978295 89 91 91
8835.253651922696 -14004.904656326275 71.74551622578585 60 63 67
8835.599039809835 -14003.553195758775 71.81830385626931 82 84 88
8835.328139882087 -14002.150557690062 71.78149992098294 102 104 109
8837.232938339874 -14000.931166642491 72.1315690042029 97 98 104
8837.096280439333 -13999.540614854946 72.11862896588548 80 82 85
8835.910830678511 -13998.059931690428 71.91921222610797 98 102 107
8835.630094655593 -13996.655808303862 71.8806646911234 96 99 103
8835.636114596286 -13995.276247787155 71.89310344165182 99 100 104
8834.809514480643 -13993.823616369174 71.75751364438332 90 94 99
8838.226200533722 -13992.744956727465 72.37630953232167 95 101 105
8836.798494185516 -13991.239350805236 72.1338530265774 88 92 96
8835.0715954587 -13989.704966309313 71.83822494577073 99 105 107
8833.344975425582 -13988.168276714188 71.54266560265917 76 78 83
8831.562920983322 -13986.624209110541 71.23727147527248 79 84 88
8828.936093768478 -13985.000247694437 70.78173563029998 94 98 102
8826.956014841442 -13983.432513220494 70.4411872356981 57 60 65
8824.74569085351 -13981.840684168652 70.05973642284745 70 76 80
8822.536856861965 -13980.246020172397 69.6785749411563 91 93 98
8820.392186598741 -13978.654440045788 69.30884188186536 90 88 93
8819.448438112906 -13977.174130508318 69.15256800314913 59 55 47
8818.912201581037 -13975.731542139592 69.06872809241892 62 53 45
8818.231424235877 -13974.274276426597 68.95920719894512 56 50 41
8815.262329832904 -13972.593976678938 68.44303754603104 53 48 44
8815.802599572777 -13971.252635805684 68.55053004942151 49 47 43
8816.226162730427 -13969.900501314229 68.63727824850962 39 39 40
8813.103759203992 -13968.197654843289 68.09392721149294 31 33 37
8810.500298937486 -13966.542367503242 67.64282063282057 29 32 35
8808.80857756742 -13964.975107845761 67.35374284855796 34 34 37
8806.18985641738 -13963.31188714305 66.89997741050567 43 39 38
8804.773375805999 -13961.767437952107 66.65984477537508 52 45 39
8808.282770901937 -13960.72540963067 67.29488834416665 52 46 41
8808.453087542466 -13959.34392809416 67.33667141709714 56 49 45
8812.175807917485 -13958.331090964642 68.00955508141419 51 45 41
8816.625918688493 -13957.399111352901 68.81161867240105 44 41 36
8820.268518994208 -13956.388201190852 69.47018428138414 36 36 32
8821.320048128387 -13955.10819450762 69.66843612911954 33 32 31
8825.702209503146 -13954.183880889692 70.45830696852464 27 28 30
8829.613239498985 -13953.214941795488 71.16444405165812 26 24 28
8830.904708944185 -13951.96901651014 71.40524674402707 27 29 33
8826.794488342195 -13950.139336671646 70.686605907853 17 22 28
8824.873808400764 -13948.54291426241 70.35689710485899 29 33 38
8818.00463765462 -13946.400980596318 69.1483300487061 53 56 63
8817.194402857554 -13944.918652177457 69.01590624306263 46 51 57
8819.800287030082 -13943.814563626569 69.49017588061703 31 38 43
8823.184390886736 -13942.800855044401 70.10262050708108 30 38 42
8825.965635033477 -13941.723876709935 70.60797022010243 22 31 36
8828.739376673559 -13940.649726485173 71.11195736893089 21 25 34
8835.20578848959 -13939.999146372602 72.27163153050843 22 26 34
8831.795438526744 -13938.227458449308 71.67744644243184 28 29 36
8824.873510569541 -13936.047202656066 70.45977740919848 33 32 41
8818.29812028441 -13933.89778854953 69.3037145339484 31 33 39
8814.863826652827 -13932.105135539716 68.70542797697419 42 40 36
8811.629802150925 -13930.331314483308 68.14273620497639 74 73 64
8807.480588985607 -13928.445423359257 67.41759787212442 100 97 91
8808.109348337692 -13927.11957771813 67.54075895712639 78 74 71
8811.254825087475 -13926.094141132735 68.11070302201371 47 44 38
8806.66482167639 -13924.146843321703 67.30738534429777 48 46 36
8809.954021760645 -13923.141876532252 67.90281674896947 48 44 38
8809.390290888694 -13921.67488838807 67.81426983455147 52 45 41
8821.69337672733 -13921.773150224031 70.00967632574333 54 47 41
8821.008800702664 -13920.29838568114 69.89962147911453 56 48 39
8832.1475874477 -13913.356768862504 71.94518071565743 58 50 44
8835.262629395069 -13912.36828446841 72.50938748977103 60 53 47
8836.900900682722 -13911.19532352923 72.81149651144605 63 55 48
8831.858169203999 -13909.166824950198 71.92803152979309 63 54 47
8829.583135573757 -13907.488727441509 71.53574007712906 64 54 48
8820.287987976737 -13904.896977938786 69.89781881652323 62 52 46
8835.04762000876 -13905.429016569919 72.52816854745964 61 53 47
8842.015608951848 -13904.959653536798 73.7758861423558 62 52 47
8828.0527572761 -13901.742717562747 71.30988601094346 65 58 56
8824.204593557179 -13899.846096349942 70.63857620987957 49 42 40
8834.373512866467 -13899.809219424575 72.45412721547865 44 40 38
8827.189597866234 -13891.913907299737 71.23676884145736 68 68 66
8837.684160487968 -13891.964155347643 73.1097325325904 68 66 64
8851.361528122095 -13892.466687094453 75.54713100647108 69 66 64
8780.439233339861 -13877.022576519546 63.01405879326655 70 69 69
8783.841828070908 -13876.083143600896 63.62919236775131 72 70 70
8784.068241307146 -13874.698104125879 63.68101851635786 76 74 71
8784.033116604729 -13873.27609698767 63.68646221736347 68 65 62
8789.836843326624 -13872.689257969027 64.72731582240874 59 52 49
8789.86020064536 -13871.279394448131 64.7430990782251 49 44 38
8789.602358808113 -13869.828930289767 64.7090201018461 46 41 36
8788.432555417916 -13868.245809984304 64.51324021192647 43 41 38
8805.04919245947 -13869.252905036414 67.47116943122768 46 45 41
8810.506161094014 -13868.64852874599 68.4502679369344 47 48 39
8823.400163315491 -13796.771560693964 71.34405474986667 48 42 41
8823.446423979603 -13795.387388717843 71.36371483291057 52 45 41
8787.17425692911 -13722.144904599765 65.4921289014466 40 35 40
8771.586436107278 -13697.377272187543 62.9135805157237 38 42 44
8773.850173430359 -13696.456371269347 63.32526473091182 35 38 41
8775.186566990711 -13695.329618972808 63.57310511019119 36 37 39
8774.973145177402 -13693.854550603288 63.54715820093453 37 40 40
8779.216633094315 -13693.388873414788 64.30849651149515 41 39 38
8781.675464731368 -13692.523336049015 64.75455082946247 42 40 39
8783.437005578795 -13691.502153472036 65.07741434598972 41 39 40
8879.66512174511 -14113.799948001344 77.40767506913947 56 55 55
8883.089090406222 -14112.55831449657 78.03140845145515 53 53 55
8881.697191382716 -14111.167756735158 77.79344205716797 53 52 51
8884.2168953437 -14109.902553168447 78.25533986119379 58 56 55
8886.286147709661 -14108.62571837409 78.63661977470474 64 60 60
8897.868376754923 -14107.673684841984 80.71979790048539 116 114 113
8893.501759177449 -14106.186440066926 79.94960587879666 152 151 152
8889.586340956224 -14104.709236280814 79.26017881606028 144 144 145
8884.557324231479 -14103.186873225239 78.37158457452921 146 145 149
8875.720445563122 -14101.51874589547 76.80188273587983 115 115 121
8871.183876378525 -14099.998728230792 76.00150776108427 74 71 76
8859.937639834015 -14098.21871653783 74.0010087182469 60 58 57
8856.838930794838 -14096.737486665788 73.4579557292559 40 40 42
8856.505124934261 -14095.360422609196 73.40947135422535 37 38 40
8858.48530327614 -14094.075074491306 73.7748606900523 42 41 34
8866.612583977218 -14093.041319240141 75.23964073959941 56 51 41
8871.135787665418 -14091.869961551329 76.05976098314308 55 51 43
8872.11679182639 -14090.556401082977 76.24634669999183 45 41 37
8870.161516484757 -14089.119323559322 75.90781515281529 43 37 36
8872.516546334966 -14087.86566997569 76.34011103026064 53 44 41
8873.163731311033 -14086.540263903382 76.46697924416254 51 43 41
8865.581047985826 -14084.849501561363 75.12219494120733 87 87 90
8857.503770685022 -14083.126288630703 73.6890544206766 72 79 87
8851.788476720072 -14081.50054046488 72.6783409804389 78 85 93
8858.922405635663 -14080.464520304771 73.96514723695304 94 100 102
8859.778273766138 -14079.141916873745 74.12938501021567 90 96 100
8861.376833704919 -14077.855937397999 74.42639975133633 93 99 104
8861.132420027128 -14076.482697435453 74.3939015379951 87 95 100
8860.683056609798 -14075.099029059082 74.32476546443233 71 76 79
8861.034054868009 -14073.754603225525 74.39871831618804 92 95 98
8862.917974436623 -14072.487996845884 74.7467054753682 105 108 110
8863.18340584258 -14071.141088098748 74.80534656922678 105 108 109
8863.946181775904 -14069.820270269325 74.95288905140426 101 104 105
8859.024799464256 -14068.20215604955 74.08436882060194 77 82 87
8853.978590638375 -14066.570831301107 73.19359039025784 100 103 109
8846.934750617625 -14064.82527812654 71.94580873920825 69 75 80
8838.657116224185 -14063.003117094713 70.47758147816083 69 78 83
8842.682510224418 -14061.848260940367 71.2083666045419 71 86 90
8845.217546766859 -14060.61556535011 71.67274433547165 74 87 94
8850.121124370658 -14059.519957124456 72.5603982353937 72 86 92
8848.653791427043 -14058.066857519943 72.30942980394555 43 47 47
8854.668102439977 -14057.044197148818 73.39550890638724 47 44 39
8857.372506222535 -14055.83600210131 73.89003293246834 49 47 43
8860.66879378298 -14054.666372563937 74.49029561720404 88 87 80
8864.01593883238 -14053.504140117057 75.09961028286232 110 110 102
8867.106683918428 -14052.330829952654 75.66307338943072 117 115 106
8854.281015174638 -14050.188722956927 73.38254459465287 108 107 102
8851.225619193678 -14048.633220457705 72.8478635899699 82 84 83
8850.220116547725 -14047.201648048975 72.67947051928853 103 102 99
8843.801744203494 -14045.427044613598 71.54400144310827 84 81 79
8846.078445316301 -14044.198492044843 71.96205560012947 55 48 42
8844.80687542855 -14042.744248542982 71.74617412282281 55 49 40
8840.176439398529 -14041.069564149018 70.9302520814511 55 48 41
8842.893892233187 -14039.87204696092 71.4270264450438 51 49 47
8845.452508596733 -14038.667561911145 71.89539722573352 90 92 95
8844.487504937013 -14037.22997084746 71.73431042375195 89 93 95
8843.521802426401 -14035.791017761609 71.57310960354478 102 102 106
8844.086432742251 -14034.455491366107 71.68526862306142 116 115 117
8842.883442422171 -14032.998526576039 71.48169787103939 111 113 117
8846.164184523608 -14031.85278362843 72.07897856425744 112 114 118
8843.981217213142 -14030.326509543444 71.7003820935465 113 114 119
8842.426872903994 -14028.841998465232 71.4340810469446 113 114 119
8842.673480057503 -14027.484645779838 71.489435057348 99 101 103
8842.622975124634 -14026.10606902335 71.49172602805638 100 99 99
8842.777586369828 -14024.742389383884 71.53064792101557 68 55 50
8843.407027295225 -14023.413912887663 71.65436194901056 57 55 52
8843.202084481381 -14022.02413720238 71.629072298531 90 92 91
8842.873937907178 -14020.624805781288 71.58178515397482 88 89 86
8840.886221548746 -14019.099268642638 71.23816840431314 85 87 90
8835.526834270386 -14017.313353137644 70.29254522237723 35 34 33
8832.950839092706 -14015.73486337633 69.84395411696967 32 33 31
8828.521087051708 -14014.00875999609 69.06441436021314 41 39 38
8830.403793960915 -14012.771805422795 69.41194030501572 50 47 43
8837.277646578055 -14011.93209856809 70.65053019576645 56 52 42
8827.78697809731 -14009.796277961716 68.96752729513739 62 54 45
8832.48109056437 -14008.78861320972 69.81692500954894 67 57 47
8836.964969532346 -14007.770120355375 70.6287413882495 64 56 45
8840.726389249974 -14006.698501391396 71.31154189541333 90 93 96
8842.678241911666 -14005.48271041066 71.67128353161503 92 97 99
8842.804257707174 -14004.117781110197 71.70509186689642 95 98 102
8843.055143332282 -14002.763447793575 71.76118767124024 94 98 103
8843.916689823338 -14001.460970799646 71.92627734727188 93 95 99
8845.399923133886 -14000.212508180855 72.20231881302844 40 45 50
8843.426922717923 -13998.669609496805 71.86148174187953 95 98 101
8844.164532054421 -13997.35829980209 72.00443656364006 96 97 102
8843.600405652533 -13995.934581236515 71.91506630274226 96 97 101
8843.351573405149 -13994.537748225439 71.88197043810992 92 96 100
8846.018285943597 -13993.398335336353 72.36917498362261 98 103 108
8849.5200688897 -13992.336834045842 73.00536958818213 87 92 97
8843.623439663392 -13990.43647519116 71.96442286787699 100 103 106
8841.465968183054 -13988.866305182593 71.59075593618867 78 82 85
8839.483584614602 -13987.30917813306 71.24835460453978 79 87 91
8837.045282191459 -13985.707551225209 70.8246261269613 93 97 101
8834.124184305765 -13984.05802965736 70.31478258081253 69 74 77
8832.991188109885 -13982.571020170633 70.12400079094735 79 85 90
8830.176083914965 -13980.924782545419 69.63312256918792 96 97 101
8829.129591873145 -13979.441739980932 69.45780827845557 86 85 87
8826.86680875586 -13977.841631845286 69.06551750146305 56 49 41
8825.585328111481 -13976.332431296929 68.84831227326444 58 50 44
8823.825620117717 -13974.77538754173 68.54581008453566 60 52 47
8821.149303994252 -13973.12698896872 68.07981819634087 66 60 54
8821.508178029635 -13971.771657335838 68.15527197353245 63 62 58
8821.7078713153 -13970.401108641077 68.20232833937536 57 58 58
8820.21789301602 -13968.86339353156 67.9479983050919 58 58 56
8818.51908265789 -13967.302833664433 67.65643690330705 56 57 58
8817.7832411563 -13965.836667454898 67.53664728796149 54 53 52
8813.816795963327 -13964.042965694098 66.84068064228612 57 52 44
8816.120514804155 -13962.88186504158 67.26302105327787 59 50 42
8816.380753573683 -13961.514541308827 67.32089965190283 57 49 39
8817.024846168995 -13960.187097846701 67.44723052189714 53 46 41
8822.540928600958 -13959.365889164415 68.44237798699133 52 46 41
8826.153480743618 -13958.353265089241 69.09801854321996 49 45 39
8827.480399537399 -13957.105273232524 69.34604712653558 58 55 51
8832.933052408434 -13956.29525893611 70.32973696097122 66 66 64
8835.926766569097 -13955.230843266605 70.87491790731833 53 50 48
8838.69645226382 -13954.146400419762 71.38012135972298 48 44 42
8833.442385750555 -13952.201176481787 70.45468046376249 53 50 47
8831.030278384076 -13950.556992998449 70.03599579726583 40 39 38
8828.696717158251 -13948.918131026934 69.63134154049837 45 45 45
8828.960871978265 -13947.561187601494 69.68983643959119 72 71 72
8823.520640854402 -13945.574795575383 68.73137654664613 62 61 60
8821.367263709064 -13943.946184322407 68.35892401004199 43 43 44
8824.485419741697 -13942.90368140365 68.92622264694731 42 44 45
8842.580822010352 -13943.548753283287 72.16331677666003 47 48 47
8842.630711918646 -13942.177564785523 72.1835360858338 44 43 39
8841.081830534462 -13940.6245786718 71.91877720459563 46 43 39
8837.31522694052 -13938.815790108572 71.25874302038869 46 42 38
8831.041997213144 -13936.713521255126 70.15197661646047 51 46 42
8824.468651655097 -13934.56812573968 68.99178912887812 45 44 40
8820.742918745831 -13932.745397597086 68.3391929758195 54 48 41
8817.95065333904 -13931.026949317278 67.85300112091082 55 49 39
8814.0510726966 -13929.174380370063 67.16949977225035 55 51 41
8820.855627731004 -13928.583945301038 68.3936220748593 56 51 45
8823.583179466104 -13927.5171189391 68.89113089041975 57 52 46
8828.350875981789 -13926.698170565818 69.75216122158308 57 51 42
8843.874031932277 -13920.298537913695 72.58630287848399 62 53 47
8850.876775145267 -13917.04947419718 73.86780802981029 63 54 46
8842.592676782684 -13914.630459675765 72.40333244604221 61 52 44
8842.704236998803 -13913.267176229278 72.43453703812258 61 52 46
8838.293672395897 -13911.32638403304 71.66020145856922 63 55 46
8834.030781814507 -13909.39864063982 70.91221930931876 63 55 46
8825.619023336603 -13905.540798763599 69.43670538844282 61 50 46
8836.648650674319 -13905.590142915222 71.41262864324773 58 49 47
8845.656209538025 -13905.389139355953 73.0282896782733 54 46 45
8839.170595191694 -13903.159129690093 71.88451825584902 60 54 52
8841.482008119521 -13902.085180446868 72.30752038519844 42 37 35
8844.325324004567 -13901.085063523136 72.82522347275172 43 38 37
8850.201182638257 -13900.494267872094 73.88294150624779 51 45 41
8847.027425150314 -13898.69498813383 73.32905744412692 63 56 53
8848.32780551037 -13897.495764279218 73.57192959153767 71 70 68
8854.214224128584 -13896.92073784075 74.63141007910382 65 63 64
8858.410208863766 -13896.122952502692 75.38982489741393 64 63 63
8863.594600946586 -13895.466216188797 76.3241858619792 62 61 60
8866.503676238723 -13894.502969371548 76.85336865611472 75 71 68
8870.146608486633 -13893.645142744937 77.51317941606935 80 75 72
8809.914092244644 -13881.109173332266 66.82362076222114 72 71 71
8805.661773584243 -13879.109388391149 66.0781255663407 78 76 73
8805.648972581112 -13877.704808896846 66.087386372953 61 56 53
8805.636172371593 -13876.300181499559 66.09664771583363 66 59 52
8809.97953570394 -13875.518761933208 66.88133574273886 53 48 40
8811.62200304205 -13874.354875712404 67.18521359342898 51 47 39
8808.578748227974 -13872.516490567788 66.65503517425839 47 44 37
8805.510132139707 -13870.67033432596 66.12037635636526 49 45 39
8812.713387285894 -13868.91883175071 67.42549053772741 48 46 37
8827.865431024422 -13816.97485913343 70.56779781106593 61 60 66
8787.157721021606 -13754.685363465416 63.78605475236623 38 35 38
8784.09571885191 -13752.657712303602 63.25407407820908 29 26 30
8786.961510175426 -13751.810527379483 63.77454632803614 26 25 29
8779.622805210085 -13748.921088110279 62.483339679087386 25 25 29
8773.795401509711 -13746.325840486237 61.460513428829174 24 25 30
8842.606638779853 -13744.977736053359 73.80145385838914 20 21 23
8778.99358915929 -13718.898009852279 62.61757424698195 51 44 43
8772.003587198438 -13701.68108754505 61.50671211834509 27 28 35
8775.76283779384 -13701.088759331347 62.18518114931812 33 34 39
8776.636434768832 -13699.857234445 62.351846399762906 51 53 38
8778.614251636947 -13698.874091967064 62.71432655407489 57 60 37
8779.992594965825 -13697.758935403182 62.97047682741124 42 42 36
8780.749203872223 -13696.505547545177 63.11635957769129 38 41 40
8780.82348642532 -13695.098991956436 63.14124059207547 37 40 39
8783.846905978316 -13694.360735263457 63.6890611677651 34 34 35
8785.09480669868 -13693.222998342279 63.9220240084618 36 34 36
8785.437834830313 -13691.880658257514 63.99453158557277 36 35 36
8787.723724943062 -13690.982869168545 64.4115112911472 35 36 39
8878.812738976689 -14113.755248025056 75.88567916134893 47 46 46
8888.35730398784 -14112.703900894801 77.61098426299749 39 42 47
8903.278037679858 -14111.836564089668 80.30172562067938 47 50 50
8901.51977849566 -14110.446354388323 79.9969091104514 55 56 56
8901.002982529597 -14109.09499615416 79.91506074783621 99 99 99
8897.117256794192 -14107.628827342747 79.2282259856077 151 151 153
8894.07615613405 -14106.186628330406 78.69310703896228 149 148 153
8890.771154808675 -14104.731067667566 78.11063316626911 151 151 153
8882.657902920717 -14103.098653139727 76.664808966879 111 112 116
8875.894798463642 -14101.504735623375 75.46150357202497 71 72 76
8870.17686788783 -14099.940665699785 74.44593604958078 39 39 44
8866.53563352144 -14098.447577198085 73.803296210211 46 46 49
8864.042563757652 -14096.99384469923 73.36683985415893 36 37 37
8864.02830691278 -14095.633901040404 73.37544779532766 45 45 43
8866.539155190698 -14094.37453593709 73.83739028680496 46 44 38
8887.788472040833 -14093.877684046578 77.66333551962676 52 47 39
8889.062309625075 -14092.586458018543 77.9030532580421 44 40 35
8890.255628451237 -14091.293527282181 78.12830304338831 46 42 35
8893.844409294064 -14090.103987276329 78.78354690309115 50 44 40
8887.534113517662 -14088.49178969924 77.66183302831728 49 44 40
8878.15530156515 -14086.736642463295 75.98939576391149 84 81 77
8870.271364372533 -14085.035521301736 74.5853801247543 95 96 98
8872.305252859232 -14083.771882632047 74.96157260289347 94 97 102
8870.696330087021 -14082.343946888352 74.68392539374484 96 99 106
8867.774696929879 -14080.852798260872 74.17069578390237 103 107 109
8869.049594071848 -14079.555668807883 74.410652590011 95 101 105
8869.73273175954 -14078.231900639414 74.54439545721054 108 113 117
8869.972120940583 -14076.887491014602 74.5984960971606 96 101 107
8870.066398490302 -14075.53623602528 74.62655345853227 90 93 98
8870.730765140908 -14074.213482531415 74.75691186539903 105 108 112
8866.502193472705 -14072.644526936389 74.00925786630532 96 98 103
8869.731576950522 -14071.451446750989 74.59989025213567 99 99 98
8870.091552178374 -14070.113932365304 74.67562263387052 69 73 77
8865.73148273007 -14068.529120880474 73.90444794162691 66 72 80
8858.713635361448 -14066.797208455135 72.6564585995134 58 64 69
8851.501841557667 -14065.045490464487 71.3737491098334 64 66 65
8842.291800496436 -14063.17527407068 69.73261198251564 42 41 39
8846.231568741123 -14062.017974691411 70.45071893670767 43 43 41
8853.203746103973 -14061.035140161306 71.71279622844689 44 43 43
8852.224685804784 -14059.61246783946 71.54839169932576 45 43 41
8855.369116304186 -14058.424100602744 72.12370587921149 45 42 38
8859.205519440859 -14057.279891045795 72.82311423794941 48 44 42
8864.939706973573 -14056.25173168532 73.86290127902843 56 54 52
8865.789952060377 -14054.94232996599 74.0265817567366 116 114 103
8866.709116547556 -14053.63815168067 74.20261504122895 118 117 107
8865.680013975965 -14052.217350581344 74.02919462753802 118 115 106
8856.88517325382 -14050.320370373169 72.46295454769421 105 101 95
8854.519769388748 -14048.809014689608 72.04993333174117 90 90 85
8852.13039910152 -14047.292983560228 71.6326399681726 107 105 100
8846.578051669729 -14045.574050276937 70.64812615602362 55 52 50
8847.63643706671 -14044.269459067422 70.84920285260999 42 38 35
8846.479118008352 -14042.82341063028 70.65292906545068 46 40 33
8842.82635841735 -14041.213261741941 70.00917798964072 50 44 37
8844.075692381619 -14039.920759793622 70.24449903337973 51 46 41
8847.583839140923 -14038.780015346838 70.88483933013734 74 74 73
8847.882734728162 -14037.428481892666 70.94970120755602 106 108 108
8848.068024263343 -14036.06961441574 70.99419035703878 96 95 96
8850.225556853833 -14034.84598033093 71.39229259504398 101 98 99
8849.183340451831 -14033.404008162881 71.2166874753097 104 100 104
8850.093897647095 -14032.096902076202 71.39119672026764 105 104 106
8850.31325916723 -14030.742279496519 71.44177912255194 104 104 107
8848.18581350504 -14029.221011175272 71.07163807045302 115 114 118
8847.751735372323 -14027.818441749723 71.00508789504016 116 116 119
8847.126267316433 -14026.401397504887 70.90423358874263 103 101 103
8847.964274854467 -14025.090497008803 71.06572535585303 74 63 61
8847.40149714908 -14023.677326587838 70.97611459800896 63 59 58
8846.909574412834 -14022.268651752962 70.89921075421456 88 90 93
8844.964576081742 -14020.750143296533 70.56186167483524 81 83 86
8843.040272912609 -14019.230583078599 70.2282434300669 79 81 85
8841.008432306462 -14017.700209353538 69.87537253194908 43 43 43
8838.17291506472 -14016.105126019067 69.37848541415835 61 63 61
8832.332241554532 -14014.272499733454 68.34304780339303 61 57 52
8836.796496107167 -14013.240429311065 69.15445913627441 57 51 42
8843.830941099222 -14012.41760178519 70.42642128791091 59 53 41
8828.731316753485 -14009.838341964933 67.73181931651447 61 53 42
8833.422137096 -14008.830925454451 68.58377782489868 60 49 41
8838.78541994323 -14007.884267502515 69.55618507631162 56 50 46
8842.199343628243 -14006.785315497347 70.17923525065008 82 85 87
8843.713195304164 -14005.534238579885 70.46179165619446 77 79 86
8844.167896760468 -14004.197126270888 70.55455802212717 70 72 77
8844.740720642056 -14002.870484572428 70.6684836551149 66 70 74
8846.636499549755 -14001.6562825385 71.0194298655854 69 71 76
8851.68115242412 -14000.71255536884 71.93450483222756 55 59 64
8851.319175984601 -13999.311793666779 71.88090788560336 65 68 74
8856.835453768883 -13998.418609175662 72.88039323548158 69 73 80
8858.176164453535 -13997.16904433673 73.1317963949897 71 73 81
8858.026369211679 -13995.790417323762 73.11618013306234 71 74 80
8859.993185274383 -13994.598740111292 73.47971791219302 76 76 80
8865.895422188945 -13993.760297264114 74.54817145868469 71 76 79
8861.358054035505 -13991.992568814589 73.74661083518538 76 79 88
8870.008092470178 -13991.411326240695 75.30716602926054 69 72 77
8847.413187705792 -13987.995229565753 71.27135128811366 70 73 76
8839.961438293596 -13985.9385975005 69.94798873588435 81 82 87
8838.652795111771 -13984.43981550727 69.724931281321 96 99 103
8837.753258065724 -13982.977345903391 69.57515660094828 96 100 106
8835.910762510071 -13981.425233357897 69.25651954738525 95 97 104
8835.371851510536 -13979.99373122903 69.17135200975498 79 78 81
8833.336895203913 -13978.41921450962 68.81828336906324 49 43 40
8830.493228985197 -13976.764513077645 68.32042036314367 54 47 42
8829.733066011637 -13975.30689859509 68.19567336460388 62 53 46
8829.940332550186 -13973.942171787046 68.24416339330593 69 64 57
8831.537484658798 -13972.713565453072 68.54151746392485 70 69 67
8833.991091114156 -13971.571354208949 68.99220210780355 72 73 71
8830.921934839751 -13969.885119017637 68.45404192500885 72 71 70
8832.650567906523 -13968.673383957035 68.77490532167846 70 69 68
8829.013561740636 -13966.925078419612 68.13512260691964 60 56 52
8827.741478758562 -13965.410968436814 67.91876672529817 59 53 46
8825.283415581061 -13963.774450230572 67.49010820362432 58 50 43
8826.67887287658 -13962.529318096915 67.7513215737099 59 51 44
8830.885997986028 -13961.575870668801 68.51584017188989 56 50 42
8834.011472743874 -13960.515771382006 69.08669126513014 55 49 43
8836.399286685079 -13959.382778421925 69.5254668573103 59 51 45
8840.686574088344 -13958.452552125502 70.30421253473777 60 54 52
8844.650942906232 -13957.49385918475 71.02511252014601 61 60 63
8844.584642311778 -13956.111466775557 71.02454438710461 62 61 63
8847.125364753512 -13955.00813854599 71.49057812390369 58 56 55
8842.477721934816 -13953.13358265832 70.67006130372519 57 55 47
8836.361334962963 -13951.093557548733 69.58673818475638 69 64 53
8835.394151701514 -13949.60706640115 69.42499411976775 73 65 53
8836.231088352453 -13948.317266226903 69.58611993660382 79 68 61
8846.708557453181 -13948.093071053598 71.4724202889896 77 69 64
8848.29966288374 -13946.89564616944 71.76843065455947 71 65 60
8849.033713486306 -13945.604532502906 71.91106236423681 69 62 57
8851.759920544639 -13944.538327264663 72.41015205590945 68 61 52
8854.342074495027 -13943.459435670511 72.88343683776051 67 60 47
8852.322910202496 -13941.860537434259 72.53340881802893 63 56 49
8844.317632804896 -13939.573981440231 71.11237858946086 60 56 51
8836.938163494704 -13937.348744687957 69.80340131909996 60 53 47
8832.089191714065 -13935.406553881046 68.94722946917956 64 57 50
8827.352636086724 -13933.470954946206 68.11122243105095 61 53 49
8855.699380113352 -13917.609972410331 73.33991677248497 64 56 47
8847.461724997489 -13915.199669916774 71.87810810675322 63 55 47
8839.180584106238 -13912.772823325264 70.40861408084915 82 78 75
8839.366310785867 -13911.416595611594 70.45316016826686 61 56 50
8838.676775304117 -13909.948181303018 70.3412048243378 61 53 46
8848.068376803247 -13908.406072417836 72.04302987178973 57 50 44
8856.484228698117 -13908.129552102497 73.55896135900421 53 45 43
8856.03469456792 -13906.702055907055 73.48983607331091 48 43 40
8855.435463821956 -13905.254206129963 73.39395383420114 57 53 52
8852.289096164208 -13903.46822219953 72.84272600390457 51 44 42
8849.679956474845 -13901.74951138509 72.38757036055347 53 48 44
8851.381766812881 -13900.603918131128 72.7030661046122 60 58 56
8843.228981848302 -13898.1358499961 71.25699658391585 63 63 64
8857.452025719846 -13898.679696765535 73.81065962290737 59 60 62
8856.996281726686 -13897.249692825491 73.74043804406277 62 62 63
8861.1815877384 -13896.452216972391 74.49975096791417 57 56 57
8866.158451966548 -13895.7688134026 75.40049499244684 31 30 33
8869.35305445841 -13894.846492876519 75.98264740009219 26 28 30
8871.953862569153 -13893.846206609232 76.45864153018502 54 53 56
8863.901032661577 -13890.003472383238 75.04184284289148 71 69 70
8829.774159211189 -13883.846984363105 68.95442191533704 77 76 75
8823.292547673633 -13881.545604798923 67.80755723764887 65 61 59
8821.974158318613 -13879.967508161091 67.5833984363836 56 52 50
8826.810214540777 -13879.26421132309 68.45898041515652 52 48 45
8826.797909384039 -13877.873540743174 68.46819180990308 54 52 47
8822.972431482049 -13875.934616645702 67.79607687266052 50 47 41
8819.447589117877 -13874.033978508867 67.17771917176408 52 49 43
8821.200273164786 -13872.894380160316 67.50231571956535 50 46 39
8819.778137976311 -13871.294301994882 67.2596779629244 51 47 40
8827.608562804666 -13818.260349459426 69.10372621798389 38 42 47
8826.593147441528 -13816.695492505783 68.93395100226972 57 57 62
