ply
format ascii 1.0
element vertex 729
property float x
property float y
property float z
property float nx
property float ny
property float nz
property uchar diffuse_red
property uchar diffuse_green
property uchar diffuse_blue
property uchar class
property uchar detection
end_header
9397.1748 -13700.9971 77.0239 0.143 -0.226 0.964 184 185 188 0 0
9391.8691 -13685.0605 76.1442 -0.008 0.407 0.913 198 198 202 0 0
9389.6621 -13683.5830 75.5920 0.077 0.714 0.696 184 186 188 0 0
9380.0342 -13680.4580 73.0638 0.070 0.737 0.672 190 190 193 0 0
9382.2500 -13674.9648 73.8702 0.010 0.537 0.843 190 192 194 0 0
9377.1855 -13672.8193 72.5582 0.022 0.562 0.827 194 195 198 0 0
9381.3896 -13672.7734 73.7132 0.015 0.591 0.807 197 198 202 0 0
9365.7500 -13667.1992 69.6241 0.048 0.694 0.719 194 195 200 0 0
9354.5918 -13663.6289 66.6920 0.010 0.539 0.842 198 201 205 0 0
9349.6816 -13660.4590 65.4596 -0.215 -0.360 0.908 199 201 204 0 0
9385.0762 -13657.6484 75.2710 -0.160 -0.312 0.937 193 197 201 0 0
9389.5977 -13645.7637 76.9407 -0.102 -0.861 0.498 194 197 201 0 0
9111.8193 -13573.3633 3.3527 0.015 -1.000 0.011 190 191 196 0 0
9127.6660 -13551.2139 8.5000 0.473 0.878 -0.078 179 180 184 0 0
9403.0557 -13598.4336 82.3423 0.003 -0.743 0.670 151 151 151 0 0
9479.1582 -13602.0859 103.0878 -0.127 -0.485 0.865 158 160 160 0 0
9126.2861 -13476.6406 10.8154 0.568 -0.817 -0.097 142 142 140 0 0
9439.5771 -13521.5908 95.1375 0.282 -0.227 -0.932 148 148 147 0 0
9134.9189 -14065.9346 -9.2573 0.355 -0.146 -0.923 181 184 186 0 0
9193.6143 -14061.3330 7.0515 0.516 0.591 -0.620 162 164 164 0 0
9316.4248 -14043.6045 41.4667 0.085 0.673 0.734 187 188 191 0 0
9312.3535 -14042.7588 40.3775 0.037 0.621 0.783 188 190 192 0 0
9309.0195 -14041.8848 39.4919 0.040 0.620 0.784 185 186 188 0 0
9305.9023 -14040.9990 38.6666 0.031 0.610 0.792 183 183 186 0 0
9305.4893 -14040.0283 38.5878 -0.007 0.580 0.814 185 186 190 0 0
9303.7930 -14039.0947 38.1550 0.366 -0.076 -0.927 180 184 188 0 0
9092.4492 -14038.5508 -19.9508 -0.044 0.263 0.964 160 161 161 0 0
9060.0469 -14032.4912 -28.6441 0.053 0.496 0.867 162 164 162 0 0
9354.5303 -14007.0703 53.2631 0.431 0.902 0.006 181 181 182 0 0
9353.1064 -14006.1240 52.9056 0.448 0.894 -0.002 184 186 187 0 0
9350.1289 -14005.1865 52.1205 0.339 0.933 -0.125 165 167 169 0 0
9347.8643 -14004.2402 51.5318 0.338 0.905 -0.257 163 163 164 0 0
8902.4150 -13995.7021 -70.6717 0.370 0.543 -0.754 153 156 158 0 0
9318.0400 -13953.1494 45.1703 0.588 0.151 -0.795 171 172 169 0 0
9234.4619 -13945.5449 22.4579 0.024 -1.000 0.014 167 167 168 0 0
9250.0381 -13945.0010 26.7613 0.033 -0.999 0.001 183 185 189 0 0
9266.5820 -13944.5107 31.3292 0.031 -0.999 0.023 175 178 182 0 0
9423.2070 -13937.6914 74.6511 -0.207 -0.510 0.835 182 185 188 0 0
9424.5049 -13922.9609 75.5388 0.356 0.847 -0.394 200 202 206 0 0
9420.6592 -13921.8311 74.5218 0.367 0.809 -0.459 200 201 205 0 0
9417.2383 -13920.7188 73.6212 0.385 0.747 -0.542 189 192 195 0 0
9125.4385 -13859.7676 -4.4359 0.459 0.638 0.618 199 200 200 0 0
9131.7939 -13859.1504 -2.6658 0.037 -0.694 0.719 197 197 198 0 0
9133.1133 -13858.1279 -2.2659 0.048 -0.716 0.696 193 194 196 0 0
9127.8174 -13853.1553 -3.5434 0.311 0.928 -0.204 195 196 198 0 0
9365.8789 -13862.6582 61.5878 -0.124 -0.382 0.916 193 194 194 0 0
9412.5332 -13866.0264 74.2977 -0.146 -0.167 0.975 193 194 193 0 0
9414.6680 -13865.2822 74.9116 -0.163 -0.304 0.939 195 197 198 0 0
9416.5625 -13863.5781 75.4941 -0.145 -0.182 0.973 196 196 195 0 0
9280.2812 -13847.5127 38.5920 -0.018 -0.744 0.668 196 198 198 0 0
9119.9980 -13815.9082 -4.3518 0.225 0.662 0.715 195 197 196 0 0
9120.3086 -13814.7949 -4.2264 0.117 0.825 0.552 196 197 198 0 0
9346.3184 -13828.1406 57.4520 0.113 0.902 0.417 187 188 184 0 0
9338.5576 -13826.2490 55.3856 0.114 0.905 0.410 190 190 188 0 0
9406.1230 -13816.8682 74.3062 0.204 -0.591 -0.780 182 182 179 0 0
8856.7930 -13723.8955 -73.4252 0.383 0.251 -0.889 174 174 169 0 0
8826.0410 -13712.8057 -81.4833 0.388 0.793 -0.470 176 176 173 0 0
8829.4619 -13709.2217 -80.4131 0.366 0.403 -0.839 184 183 181 0 0
9448.4932 -13797.1865 86.6682 0.799 -0.596 0.073 184 184 183 0 0
9449.2324 -13796.3633 86.9012 0.408 -0.760 0.506 184 185 183 0 0
9460.6572 -13797.1211 90.0162 0.111 -0.888 0.447 185 186 187 0 0
9462.8750 -13796.5264 90.6474 0.111 -0.888 0.447 188 188 189 0 0
9292.4424 -13764.9629 44.9111 0.198 -0.103 0.975 185 187 187 0 0
9292.8125 -13763.9775 45.0482 0.284 0.131 0.950 188 188 188 0 0
9290.6680 -13762.6064 44.5079 0.900 -0.435 0.013 185 186 185 0 0
9371.3818 -13762.1953 66.7213 0.302 -0.953 0.006 183 182 184 0 0
9374.0986 -13761.6504 67.4881 0.759 -0.646 0.081 185 188 187 0 0
9023.7100 -13663.5430 -25.3436 0.649 -0.760 -0.034 201 202 204 0 0
9025.2764 -13662.5977 -24.8789 0.347 -0.923 0.165 202 205 208 0 0
9037.7158 -13658.7852 -21.3201 0.480 -0.873 0.087 200 205 207 0 0
9039.8037 -13657.9561 -20.7160 0.588 -0.788 0.184 198 200 202 0 0
9258.3369 -13685.8213 38.3827 0.339 0.916 0.214 191 193 196 0 0
9405.2334 -13713.3467 77.7916 0.622 -0.384 -0.682 200 203 207 0 0
9406.0049 -13712.5264 78.0332 0.622 -0.384 -0.682 199 200 205 0 0
9407.0156 -13711.7568 78.3391 0.708 0.240 -0.664 201 204 208 0 0
9404.9043 -13710.3506 77.8091 0.592 0.582 -0.558 199 202 205 0 0
9404.7051 -13709.3330 77.7909 0.639 0.585 -0.499 200 203 207 0 0
9413.5723 -13709.2080 80.2342 0.048 -0.122 0.991 201 205 209 0 0
9391.8828 -13702.7617 74.5012 0.561 0.621 -0.547 199 201 205 0 0
9397.8604 -13703.0205 76.1358 0.556 0.717 -0.421 197 201 206 0 0
9396.4648 -13701.7461 75.7980 0.449 0.804 -0.390 197 199 204 0 0
9388.5811 -13699.1084 73.7246 0.316 -0.481 -0.818 198 202 207 0 0
9391.1992 -13698.6699 74.4606 0.325 -0.484 -0.813 195 198 204 0 0
9393.6709 -13698.2041 75.1573 0.310 -0.647 -0.696 190 192 195 0 0
9404.9492 -13690.7939 78.5260 -0.021 -0.106 0.994 189 191 193 0 0
9397.1211 -13685.1416 76.5767 0.058 0.630 0.774 195 198 201 0 0
9420.3320 -13678.6191 83.1955 -0.088 -0.909 0.408 194 197 201 0 0
9384.5107 -13659.4180 74.0355 -0.182 -0.135 0.974 198 201 204 0 0
9111.6279 -13573.1992 2.0917 0.030 -0.979 0.200 189 191 194 0 0
9436.4189 -13635.9902 89.1560 0.103 -0.853 -0.512 180 182 186 0 0
9127.4238 -13551.0303 7.2347 0.472 0.881 0.016 190 191 198 0 0
9510.8623 -13628.9551 109.8834 0.102 -0.850 -0.517 145 147 145 0 0
9475.5459 -13602.8076 101.1125 -0.096 -0.582 0.808 164 164 164 0 0
9477.3555 -13602.3955 101.6251 -0.096 -0.582 0.808 165 165 166 0 0
9479.1611 -13601.9854 102.1363 -0.096 -0.582 0.808 155 155 154 0 0
8900.7451 -13425.7178 -50.5929 0.998 0.067 -0.010 162 162 162 0 0
9121.2363 -13476.1504 8.2312 0.163 -0.944 0.286 146 146 146 0 0
9123.3613 -13475.6016 8.8354 0.163 -0.944 0.286 146 145 146 0 0
9501.0146 -13529.6387 110.7537 0.244 -0.906 -0.347 121 122 120 0 0
9495.5371 -13518.1670 109.6605 0.185 -0.915 -0.359 157 156 157 0 0
9494.2178 -13516.7314 109.3494 0.117 -0.953 -0.281 163 164 166 0 0
9322.7754 -14044.3389 42.1627 0.051 0.668 0.743 171 173 174 0 0
9319.7012 -14043.4678 41.3465 0.054 0.606 0.794 168 170 170 0 0
9313.8486 -14041.7031 39.7960 -0.029 0.527 0.849 181 181 181 0 0
9311.5928 -14040.7939 39.2067 -0.029 0.531 0.847 171 173 176 0 0
9345.3438 -14004.2207 49.8271 0.301 0.953 0.004 140 141 138 0 0
9337.4014 -14002.3320 47.7051 0.392 0.870 -0.299 168 170 171 0 0
9331.7041 -14001.3867 46.1683 0.441 0.890 -0.112 168 169 171 0 0
9145.0000 -13948.1924 -3.3988 -0.179 -0.291 0.940 167 165 164 0 0
9235.5215 -13945.5303 21.6560 0.024 -1.000 0.014 169 168 167 0 0
9476.0459 -13939.8545 88.1783 0.141 -0.903 -0.407 194 195 199 0 0
8971.2539 -13908.9414 -49.8943 0.234 0.946 0.225 199 200 203 0 0
9422.1426 -13922.7900 73.9293 0.302 0.946 -0.119 201 202 205 0 0
9422.1826 -13918.1543 74.1069 0.336 0.263 -0.904 197 197 199 0 0
9419.3672 -13917.0674 73.3696 0.337 0.257 -0.906 197 199 200 0 0
9154.8525 -13868.7695 2.1722 0.255 0.967 0.022 182 181 176 0 0
9134.6064 -13859.3145 -3.0703 0.046 -0.754 0.656 189 189 186 0 0
9137.0596 -13858.3867 -2.3607 0.080 -0.743 0.665 188 189 186 0 0
9125.8145 -13852.9189 -5.2647 0.326 0.909 -0.261 187 188 184 0 0
9105.9814 -13848.9336 -10.5897 0.384 0.472 -0.793 185 186 184 0 0
9099.2773 -13847.2002 -12.3760 0.381 0.431 -0.818 187 187 187 0 0
9085.5449 -13844.8418 -16.0775 0.354 0.253 -0.900 190 192 191 0 0
9375.3232 -13863.4727 63.1517 -0.181 -0.434 0.882 187 190 189 0 0
9365.4639 -13861.5859 60.5012 -0.199 -0.715 0.670 185 186 185 0 0
9126.8672 -13816.5684 -3.6679 0.438 0.897 0.059 170 172 165 0 0
9123.9258 -13815.1104 -4.4266 0.263 0.947 0.186 175 178 173 0 0
9118.4180 -13813.3711 -5.8827 0.238 0.950 0.205 174 173 170 0 0
9390.3076 -13812.8438 69.1029 0.210 -0.500 -0.840 168 167 162 0 0
9393.4307 -13811.3154 70.0189 0.136 -0.732 -0.668 177 177 174 0 0
8827.1338 -13708.7842 -82.4380 0.364 0.223 -0.904 177 177 173 0 0
9446.7539 -13796.8633 85.2408 0.306 -0.922 -0.239 181 182 180 0 0
9450.5244 -13796.4854 86.2941 0.486 -0.856 -0.174 183 184 183 0 0
9462.4619 -13797.3193 89.5554 0.257 -0.953 -0.159 180 181 180 0 0
9464.8496 -13796.7520 90.2344 0.646 -0.572 -0.505 181 182 178 0 0
9370.1689 -13762.9111 65.3447 0.131 -0.989 0.074 189 189 190 0 0
9374.2471 -13762.5869 66.4809 0.677 -0.635 0.373 189 190 189 0 0
9023.6836 -13663.4355 -26.6146 0.636 -0.756 -0.155 203 204 206 0 0
9025.7910 -13662.5928 -26.0033 0.762 -0.200 -0.615 203 205 208 0 0
9038.2227 -13658.7793 -22.4385 0.331 -0.887 0.322 200 203 206 0 0
9040.4404 -13657.9756 -21.7980 0.458 -0.786 0.415 197 199 200 0 0
9409.5410 -13715.1064 77.9188 0.524 0.837 -0.156 198 201 205 0 0
9407.9424 -13713.8096 77.5244 0.622 0.309 -0.719 202 204 208 0 0
9406.2979 -13712.5020 77.1181 0.633 0.223 -0.742 200 202 207 0 0
9405.8057 -13711.4268 77.0210 0.633 0.223 -0.742 194 198 201 0 0
9404.1973 -13710.1221 76.6244 0.609 0.272 -0.745 199 202 205 0 0
9403.9033 -13709.0840 76.5806 0.603 0.297 -0.740 201 202 206 0 0
9404.7598 -13708.2832 76.8456 0.714 0.299 -0.633 202 204 208 0 0
9416.5059 -13709.7295 80.0324 0.183 0.048 0.982 200 203 206 0 0
9414.4912 -13708.3428 79.5266 -0.040 -0.237 0.971 200 203 207 0 0
9385.0723 -13700.2695 71.7052 0.460 0.521 -0.719 194 197 201 0 0
9393.7422 -13701.0908 74.0663 0.446 0.782 -0.437 197 200 203 0 0
9381.7881 -13697.5967 70.8958 0.276 -0.562 -0.780 198 201 204 0 0
9387.2900 -13697.7598 72.4069 0.272 -0.582 -0.767 197 201 204 0 0
9393.5049 -13698.0820 74.1091 0.263 -0.738 -0.621 201 205 208 0 0
9407.4873 -13698.1045 77.9635 0.222 -0.734 0.642 197 199 203 0 0
9407.1494 -13697.0547 77.9081 0.696 0.329 0.638 197 200 203 0 0
9408.6699 -13696.4043 78.3508 0.982 0.006 0.190 189 191 194 0 0
9408.8008 -13695.4551 78.4208 0.703 0.057 0.709 185 186 189 0 0
9408.5684 -13694.4277 78.3938 0.917 0.233 0.323 195 198 200 0 0
9408.2617 -13693.3848 78.3468 0.945 -0.182 -0.271 199 200 204 0 0
9407.5596 -13692.2539 78.1938 0.410 -0.860 0.304 183 186 190 0 0
9408.5986 -13691.5020 78.5072 0.326 -0.854 -0.405 184 186 188 0 0
9408.3301 -13690.4658 78.4705 0.696 0.357 -0.623 182 185 190 0 0
9408.4873 -13689.5225 78.5476 0.888 -0.415 0.200 183 188 190 0 0
9405.5654 -13687.9004 77.8005 0.753 0.467 0.463 183 184 184 0 0
9382.7754 -13664.9131 72.3426 0.215 -0.802 -0.558 187 187 190 0 0
9386.9121 -13664.8809 73.4845 0.155 -0.868 -0.471 195 195 200 0 0
9415.7607 -13644.2100 82.1817 0.079 0.418 0.905 194 198 201 0 0
9411.9648 -13642.2627 81.2050 0.174 0.640 0.749 196 200 203 0 0
9409.0400 -13640.5322 80.4607 0.240 0.749 0.617 190 194 199 0 0
9413.1250 -13640.5898 81.5850 -0.069 0.144 0.987 187 189 194 0 0
9118.5205 -13541.3662 3.9215 0.673 0.680 -0.291 169 169 173 0 0
9469.0664 -13600.7861 98.4399 0.693 0.563 0.450 165 165 166 0 0
9241.3359 -13492.9424 39.5249 0.148 -0.770 -0.620 162 162 163 0 0
8943.9551 -13367.5928 -37.9652 0.143 -0.883 0.447 157 158 158 0 0
9493.7197 -13516.4316 108.2691 0.047 -0.994 0.101 139 138 137 0 0
9250.3945 -13417.0684 44.7495 0.280 -0.419 -0.864 155 154 157 0 0
9322.2637 -14045.2988 40.9624 0.368 0.708 -0.603 182 183 185 0 0
9325.3730 -14044.2236 41.8604 0.053 0.669 0.742 185 186 190 0 0
9320.3115 -14042.4443 40.5251 -0.039 0.486 0.873 177 179 178 0 0
9317.6758 -14041.5537 39.8286 -0.036 0.487 0.873 169 170 172 0 0
9067.8926 -14032.2471 -28.8832 0.010 0.364 0.931 161 162 165 0 0
9060.7861 -14028.9551 -30.7296 0.362 0.463 0.810 173 176 178 0 0
9257.6982 -14011.8770 24.3132 0.300 -0.097 0.949 181 182 184 0 0
9363.7490 -14008.8271 53.7373 0.339 0.895 -0.291 179 182 186 0 0
9335.4062 -14002.3057 46.1364 0.396 0.878 -0.269 161 162 164 0 0
9330.5693 -14001.3555 44.8337 0.439 0.880 -0.183 172 175 179 0 0
8960.4883 -14000.4736 -57.4330 0.203 -0.885 -0.418 159 163 167 0 0
8965.2783 -13999.2432 -56.0650 0.254 -0.863 -0.437 145 149 149 0 0
9050.8643 -13982.7910 -31.8173 0.803 0.160 0.574 190 190 193 0 0
9096.9414 -13946.7773 -17.7898 -0.215 -0.496 0.841 176 175 175 0 0
9444.3721 -13940.3066 78.4794 -0.010 -0.955 0.296 190 192 196 0 0
8965.7783 -13909.8545 -52.7224 0.123 0.480 0.869 196 198 197 0 0
8965.4834 -13908.6074 -52.7592 0.160 0.590 0.791 198 198 198 0 0
9188.5273 -13913.7148 8.7117 0.568 0.706 -0.423 187 187 186 0 0
9184.6602 -13912.4326 7.6887 0.583 0.780 -0.229 188 189 188 0 0
9415.5322 -13921.4629 71.1829 0.324 0.877 -0.354 201 201 204 0 0
9363.7100 -13909.0283 57.3040 0.324 0.936 -0.141 191 192 190 0 0
9360.3301 -13907.8545 56.4117 0.364 0.846 -0.390 189 190 187 0 0
9168.6475 -13871.9766 4.7129 0.278 0.955 -0.102 173 172 169 0 0
9060.8418 -13849.6895 -24.2879 0.428 0.732 -0.530 178 177 174 0 0
9059.2412 -13848.3740 -24.6834 0.456 0.643 -0.615 182 183 182 0 0
9057.3525 -13847.0322 -25.1573 0.527 0.492 -0.693 181 183 179 0 0
9390.5098 -13863.8604 66.3312 -0.189 -0.376 0.907 180 184 184 0 0
9131.0957 -13816.9473 -3.6946 0.175 0.873 0.456 172 173 168 0 0
9119.5742 -13813.4219 -6.7530 0.187 0.928 0.323 165 165 161 0 0
9115.0742 -13811.7852 -7.9382 0.246 0.937 0.250 179 179 177 0 0
9383.9883 -13810.0137 66.4588 0.153 -0.703 -0.695 157 156 149 0 0
8820.7441 -13711.8506 -85.7149 0.373 0.404 -0.835 165 165 160 0 0
8817.3545 -13709.9990 -86.5857 0.366 0.343 -0.865 167 166 160 0 0
8812.3281 -13707.9062 -87.8999 0.365 0.341 -0.866 169 167 161 0 0
8813.0117 -13706.6348 -87.6654 0.365 0.223 -0.904 174 173 167 0 0
9446.3896 -13796.7412 84.1835 0.250 -0.900 0.357 174 176 173 0 0
9449.7021 -13796.2959 85.1152 0.430 -0.786 -0.444 174 175 172 0 0
9462.3018 -13797.2285 88.5646 0.278 -0.947 -0.159 178 178 176 0 0
9464.1113 -13796.5742 89.0882 0.646 -0.572 -0.505 181 181 180 0 0
9271.6504 -13756.3477 37.3301 0.501 0.596 -0.627 181 181 182 0 0
9019.0879 -13661.2334 -29.0742 0.180 -0.975 -0.131 201 203 207 0 0
9022.1602 -13660.5703 -28.2010 0.188 -0.956 -0.227 201 203 207 0 0
9034.6787 -13659.2324 -24.6927 0.144 -0.979 -0.142 200 202 204 0 0
9257.7070 -13689.8252 35.8604 0.263 -0.947 0.183 201 203 207 0 0
9408.2783 -13714.7676 76.5872 0.518 0.825 -0.225 195 197 199 0 0
9379.5137 -13698.0283 69.2364 0.459 0.862 0.216 194 196 200 0 0
9405.7480 -13696.6680 76.5367 0.573 0.503 -0.647 198 201 204 0 0
9405.6113 -13695.6602 76.5351 0.605 0.368 -0.707 196 200 204 0 0
9404.9551 -13694.5400 76.3939 0.604 0.467 -0.646 193 196 199 0 0
9405.7998 -13693.7422 76.6558 0.620 -0.501 0.604 199 201 206 0 0
9406.5068 -13692.9160 76.8811 0.316 -0.695 0.646 198 200 205 0 0
9408.0156 -13692.2656 77.3214 0.497 -0.829 0.255 190 192 196 0 0
9408.6924 -13691.4355 77.5382 0.251 -0.942 -0.223 194 194 199 0 0
9409.3398 -13690.5986 77.7472 0.809 0.582 -0.079 200 201 206 0 0
9408.8213 -13689.5078 77.6429 0.134 0.182 0.974 190 192 196 0 0
9404.7510 -13684.6875 76.6906 0.126 0.232 0.965 192 194 197 0 0
9423.4062 -13682.0557 81.9417 -0.202 -0.453 0.868 186 189 191 0 0
9448.2646 -13684.8516 88.7127 -0.194 -0.772 0.606 183 184 186 0 0
9371.8662 -13663.2852 68.3678 0.278 -0.538 -0.796 185 188 191 0 0
9376.3887 -13663.3320 69.6161 0.280 -0.533 -0.798 189 191 195 0 0
9117.7393 -13541.0342 2.5042 0.656 0.754 -0.031 179 182 185 0 0
9119.7939 -13540.3916 3.0951 0.450 -0.885 -0.123 172 173 177 0 0
9121.3477 -13539.6162 3.5523 0.462 -0.874 -0.154 163 165 168 0 0
8900.7646 -13428.1543 -53.4260 0.953 0.187 -0.238 181 181 182 0 0
8900.4727 -13426.7041 -53.4546 0.953 0.187 -0.238 174 175 174 0 0
8988.6221 -13358.8721 -26.6568 0.939 -0.140 -0.313 153 152 155 0 0
9520.7285 -13528.0830 114.3630 0.062 -0.997 -0.048 136 135 136 0 0
9522.8164 -13527.9131 114.9464 0.072 -0.977 -0.201 139 138 139 0 0
9318.0605 -14044.4375 38.8034 0.387 0.559 -0.733 190 191 193 0 0
9066.2461 -14031.0996 -30.5020 0.140 0.451 0.881 181 181 184 0 0
9259.5137 -14011.8213 23.7452 0.300 -0.097 0.949 173 174 177 0 0
9363.0107 -14008.7998 52.5341 0.314 0.923 -0.220 183 183 188 0 0
8954.5752 -14000.4443 -60.3518 0.205 -0.889 -0.410 180 181 183 0 0
8966.8838 -13999.1934 -56.8962 0.233 -0.963 -0.133 166 170 173 0 0
8969.6221 -13997.9727 -56.0938 0.313 -0.908 -0.278 157 157 155 0 0
9051.2432 -13982.7471 -32.9307 0.802 0.556 0.217 191 194 196 0 0
9252.9004 -13982.1211 22.9744 0.316 -0.028 -0.948 186 187 188 0 0
9440.0410 -13941.0000 76.3049 -0.211 -0.328 0.921 171 171 163 0 0
9447.7236 -13940.3984 78.4552 0.028 -0.977 0.211 179 178 175 0 0
9454.9209 -13939.7871 80.4715 -0.022 -0.933 0.358 183 184 180 0 0
9487.7295 -13938.4961 89.6096 -0.046 -0.960 0.275 177 180 178 0 0
8970.3701 -13908.7773 -52.6972 0.066 0.253 0.965 185 186 182 0 0
8969.8496 -13907.5225 -52.7966 -0.015 0.042 0.999 184 185 183 0 0
8966.2158 -13906.1152 -53.7535 -0.059 -0.075 0.995 184 184 181 0 0
9188.5615 -13914.7461 7.5540 0.596 0.729 -0.336 177 180 173 0 0
9187.3066 -13913.5986 7.2474 0.656 0.646 -0.390 171 173 165 0 0
9184.3076 -13912.3604 6.4605 0.629 0.602 -0.492 170 170 166 0 0
9417.8760 -13922.4707 70.8250 0.324 0.881 -0.346 185 185 181 0 0
9362.9531 -13908.9316 56.0888 0.321 0.943 -0.088 178 180 174 0 0
9161.2764 -13870.2471 1.5840 0.255 0.967 -0.030 171 172 171 0 0
8978.0117 -13834.0283 -47.9071 0.416 0.647 -0.639 186 187 185 0 0
8974.6709 -13832.4922 -48.7778 0.443 0.678 -0.587 186 186 184 0 0
8975.7793 -13831.3506 -48.4300 0.487 -0.272 -0.830 185 184 183 0 0
8976.5508 -13830.1807 -48.1742 0.502 -0.179 -0.846 183 183 180 0 0
9133.0859 -13817.0869 -4.3276 0.076 0.731 0.678 183 183 181 0 0
9128.7871 -13815.4873 -5.4617 0.075 0.763 0.643 179 179 178 0 0
9122.2520 -13813.6387 -7.2065 0.130 0.871 0.473 178 179 176 0 0
9342.8809 -13825.5547 53.5077 0.116 0.890 0.440 171 172 171 0 0
9336.0000 -13823.7510 51.6653 0.128 0.910 0.395 165 164 163 0 0
9329.0449 -13821.9297 49.8032 0.134 0.925 0.356 165 164 162 0 0
9364.5947 -13825.1338 59.5399 0.066 0.548 0.834 162 161 155 0 0
9358.1475 -13823.3818 57.8159 0.101 0.645 0.757 168 167 161 0 0
9361.5908 -13822.8066 58.7907 0.234 0.943 0.237 175 175 172 0 0
9362.8281 -13820.0010 59.2341 -0.096 -0.642 0.761 168 168 164 0 0
9394.1777 -13816.1064 68.0607 -0.215 -0.447 0.868 170 170 166 0 0
9400.4727 -13814.0254 69.8797 -0.168 -0.179 0.969 158 159 152 0 0
9401.9648 -13813.2588 70.3207 -0.171 -0.250 0.953 158 158 153 0 0
9373.7412 -13808.6064 62.6657 0.143 -0.740 -0.657 160 159 154 0 0
8833.8467 -13720.4023 -83.7950 0.562 0.783 -0.266 165 164 159 0 0
8823.1758 -13717.5488 -86.6502 0.419 0.905 -0.069 166 165 163 0 0
8806.0645 -13708.2754 -91.0605 0.412 0.539 -0.735 160 157 151 0 0
9448.9375 -13798.9111 83.8505 -0.012 -0.623 0.782 166 163 154 0 0
9449.0215 -13796.1270 83.9734 0.272 -0.608 0.746 173 174 168 0 0
9450.1904 -13795.3682 84.3245 0.464 -0.681 0.566 178 178 173 0 0
9458.9346 -13795.7363 86.7345 0.464 0.667 0.584 184 185 184 0 0
9262.8496 -13689.6768 36.1878 -0.046 -0.562 0.826 202 205 208 0 0
9265.4385 -13689.1182 36.9251 -0.012 -0.782 0.623 202 204 208 0 0
9435.3193 -13709.6182 83.2693 0.071 0.384 0.921 194 196 200 0 0
9432.8926 -13708.1514 82.6492 0.069 0.303 0.951 198 201 205 0 0
9430.6201 -13706.7139 82.0708 0.390 0.825 -0.409 200 204 206 0 0
9427.1719 -13705.0234 81.1756 0.391 0.879 -0.272 191 194 199 0 0
9406.0361 -13697.6221 75.5833 0.308 -0.640 -0.704 196 199 203 0 0
9406.2773 -13696.6953 75.6832 0.653 0.060 -0.755 191 192 195 0 0
9406.7803 -13695.8242 75.8538 0.662 0.004 -0.749 191 193 196 0 0
9407.4404 -13694.9883 76.0667 0.635 -0.255 -0.729 194 195 199 0 0
9406.9375 -13693.9014 75.9662 0.913 -0.226 -0.338 188 190 192 0 0
9405.9678 -13692.7119 75.7399 0.956 -0.071 0.285 185 189 191 0 0
9408.4521 -13692.2734 76.4441 0.497 -0.829 0.255 191 191 195 0 0
9408.2012 -13691.2402 76.4114 0.231 -0.973 -0.030 197 197 201 0 0
9412.1777 -13691.1328 77.5172 0.289 -0.549 0.784 200 202 205 0 0
9411.3936 -13689.9844 77.3409 0.149 0.182 0.972 189 190 195 0 0
9483.7549 -13650.0498 98.8214 -0.205 -0.499 0.842 189 189 193 0 0
9467.8105 -13619.2832 95.5032 -0.000 -0.984 0.178 174 175 176 0 0
9476.3154 -13618.8438 97.8756 0.025 -1.000 0.004 162 163 164 0 0
8987.6074 -13362.3125 -28.3820 0.577 0.428 0.696 133 133 132 0 0
8987.5371 -13360.9697 -28.3534 0.717 0.148 0.682 134 133 134 0 0
8995.9131 -13359.9648 -25.9963 0.173 -0.925 0.339 146 146 147 0 0
9318.1260 -14045.3809 37.7596 0.385 0.632 -0.672 176 177 177 0 0
9314.2314 -14044.5352 36.7080 0.387 0.559 -0.733 186 187 187 0 0
9310.7334 -14043.6709 35.7670 0.372 0.577 -0.727 193 194 198 0 0
9362.2500 -14008.7725 51.3234 0.311 0.929 -0.200 182 182 183 0 0
9334.9541 -14002.2354 43.9735 0.342 0.932 -0.122 172 173 172 0 0
8856.6367 -13991.6465 -88.5326 0.337 0.464 -0.819 169 169 169 0 0
9116.0879 -13950.5977 -14.9893 -0.112 -0.835 0.539 168 167 164 0 0
9132.4990 -13949.9170 -10.4058 -0.127 -0.814 0.566 163 163 159 0 0
9132.1191 -13948.7920 -10.4712 -0.214 -0.538 0.815 167 167 165 0 0
9380.5439 -13945.2471 58.6714 -0.204 -0.634 0.746 121 123 116 0 0
9447.5068 -13943.0684 77.3523 -0.218 -0.397 0.891 116 118 115 0 0
8976.5977 -13907.7842 -52.2150 -0.038 -0.191 0.981 169 170 167 0 0
8975.2393 -13906.4922 -52.5462 -0.076 -0.300 0.951 168 169 164 0 0
9184.1396 -13915.5576 5.1660 0.695 -0.714 -0.082 164 165 158 0 0
9174.9229 -13914.0107 2.6605 0.037 -0.657 0.753 152 151 143 0 0
9183.0576 -13913.3291 4.9448 0.845 -0.161 -0.510 149 148 141 0 0
9395.6904 -13922.2012 63.7011 0.828 -0.550 0.112 120 119 113 0 0
9394.9971 -13921.2188 63.5434 0.561 0.803 0.201 155 155 145 0 0
9168.8750 -13871.8691 2.4833 0.215 0.971 0.101 159 159 153 0 0
9404.7539 -13817.3877 69.9568 -0.212 -0.456 0.864 177 176 176 0 0
9424.1006 -13817.0186 75.3447 -0.015 0.455 0.890 164 166 162 0 0
9422.2314 -13815.8301 74.8678 -0.004 0.483 0.876 168 168 163 0 0
8879.2598 -13730.6221 -72.9390 0.038 0.787 0.616 160 160 153 0 0
8830.3379 -13715.7432 -85.9998 0.063 0.444 0.894 168 167 164 0 0
8824.4824 -13713.5508 -87.5483 0.075 0.637 0.767 179 179 179 0 0
8817.5586 -13711.1973 -89.3878 0.042 0.570 0.821 169 169 167 0 0
9442.5586 -13799.7881 81.0872 0.273 -0.831 0.485 164 164 159 0 0
9445.5342 -13799.2832 81.9319 0.300 -0.952 0.058 163 165 158 0 0
9447.4883 -13798.6328 82.4980 0.300 -0.952 0.058 163 163 158 0 0
9450.5605 -13797.2168 83.4020 0.047 -0.982 0.181 169 167 160 0 0
9450.5430 -13796.2832 83.4303 0.447 -0.871 0.205 168 168 161 0 0
9451.3750 -13795.4746 83.6903 0.679 -0.437 0.590 170 170 165 0 0
9459.6504 -13795.7744 85.9787 0.572 0.678 0.462 168 167 163 0 0
9294.7119 -13753.5430 41.6624 -0.018 -0.995 0.099 188 189 190 0 0
9509.1279 -13784.3828 100.1305 0.099 -0.886 -0.453 189 191 189 0 0
9182.7725 -13714.2578 11.9648 0.346 -0.711 -0.613 195 197 199 0 0
9175.5566 -13703.9668 10.3273 0.189 -0.982 0.011 196 199 201 0 0
9178.8389 -13703.4268 11.2583 0.130 -0.982 0.137 201 205 206 0 0
8928.6104 -13608.7256 -54.8816 0.084 0.560 0.824 203 205 209 0 0
9437.4756 -13710.9404 82.8433 0.084 0.483 0.872 201 201 205 0 0
9437.5508 -13710.0010 82.8979 0.088 0.453 0.887 202 205 209 0 0
9419.1240 -13703.2373 78.0198 0.408 0.854 -0.323 194 194 200 0 0
9394.4287 -13696.0439 71.4158 0.190 -0.747 -0.637 189 191 195 0 0
9399.2314 -13696.0820 72.7486 0.168 -0.804 -0.570 187 189 190 0 0
9403.5654 -13696.0273 73.9546 0.361 -0.359 -0.861 188 189 191 0 0
9405.4209 -13695.4453 74.4907 0.361 -0.359 -0.861 188 188 192 0 0
9406.8408 -13694.7715 74.9094 0.422 -0.154 -0.893 187 188 188 0 0
9407.8262 -13694.0059 75.2103 0.557 0.129 -0.820 195 198 204 0 0
9406.9033 -13691.8486 75.0309 0.538 0.285 -0.793 192 194 197 0 0
9408.9561 -13689.3613 75.6899 0.776 0.625 -0.082 196 198 201 0 0
9407.9688 -13688.1650 75.4582 0.776 0.625 -0.082 194 196 200 0 0
9440.8047 -13634.8242 86.4826 0.082 -0.856 -0.510 191 192 196 0 0
9140.7812 -13482.8604 8.5512 0.768 0.265 -0.583 170 170 168 0 0
9129.9180 -13478.3047 5.6955 -0.125 -0.713 0.690 164 165 161 0 0
9145.6445 -13478.4072 10.0610 -0.153 -0.836 0.526 172 171 171 0 0
9270.3848 -13489.7656 44.3106 0.153 -0.782 -0.604 136 136 135 0 0
9421.7061 -13519.7812 85.2795 0.166 -0.277 0.946 155 154 155 0 0
8996.8535 -13360.1387 -27.0577 0.159 -0.873 0.462 129 129 129 0 0
9399.8945 -13484.7354 80.4697 -0.007 -0.958 0.288 136 136 134 0 0
9191.4805 -13388.7646 25.9917 0.124 -0.950 -0.285 167 166 167 0 0
9316.8750 -14043.4414 36.4517 0.299 -0.832 -0.467 177 179 178 0 0
9336.4727 -14041.8398 41.9669 0.392 0.318 -0.863 183 184 184 0 0
9331.6943 -14041.0254 40.6651 0.399 0.344 -0.850 178 177 181 0 0
9326.3330 -14040.2227 39.2005 0.454 0.490 -0.744 178 178 180 0 0
9321.3271 -14039.4014 37.8355 0.558 0.579 -0.594 176 177 177 0 0
9041.1475 -13976.7285 -37.9688 0.408 0.831 -0.377 187 187 189 0 0
9123.6904 -13951.8701 -14.0953 -0.177 -0.637 0.751 123 120 116 0 0
9463.1494 -13942.7314 80.7731 -0.223 -0.265 0.938 128 129 126 0 0
9178.4609 -13914.1318 2.5012 0.061 -0.669 0.741 140 139 130 0 0
9401.5498 -13923.3994 64.3045 0.315 0.941 0.124 154 157 154 0 0
9397.8320 -13922.2646 63.3093 0.315 0.881 0.354 130 130 123 0 0
9395.5488 -13921.2002 62.7113 0.350 0.740 0.575 124 125 118 0 0
9394.0693 -13920.1758 62.3358 0.345 0.776 0.528 131 132 123 0 0
9371.7178 -13915.1348 56.2899 0.356 0.408 -0.841 122 123 117 0 0
9442.2598 -13914.5098 75.9589 -0.067 -0.630 0.774 136 135 126 0 0
9442.6309 -13913.6162 76.0938 -0.049 -0.731 0.680 143 141 131 0 0
9445.6992 -13912.8867 76.9745 -0.045 -0.695 0.718 146 144 135 0 0
9442.0703 -13911.7500 76.0043 -0.080 -0.823 0.563 140 139 133 0 0
9438.8125 -13910.6309 75.1366 -0.050 -0.659 0.751 143 141 133 0 0
9573.8916 -13907.4189 112.8721 -0.157 -0.543 0.825 167 167 164 0 0
9001.9453 -13829.8857 -43.6641 0.424 0.763 -0.489 179 177 175 0 0
9143.2588 -13818.0293 -3.8849 0.043 0.772 0.634 176 177 175 0 0
9136.7148 -13816.1943 -5.6422 0.100 0.844 0.526 178 178 178 0 0
9127.9697 -13814.1104 -8.0038 0.115 0.883 0.455 184 186 186 0 0
9121.0205 -13812.2109 -9.8714 0.163 0.912 0.375 189 193 193 0 0
9460.3389 -13837.2705 83.7413 0.033 -0.922 0.385 195 195 200 0 0
9459.7129 -13836.2793 83.6023 0.450 -0.712 0.540 187 189 193 0 0
9466.0479 -13836.1162 85.3725 0.403 -0.915 -0.008 179 182 181 0 0
9466.6758 -13835.2773 85.5771 0.919 -0.313 -0.240 165 167 164 0 0
9467.2393 -13834.4307 85.7642 0.884 -0.210 -0.417 176 177 175 0 0
9456.6553 -13828.5488 83.0257 0.526 0.817 -0.236 179 181 180 0 0
9454.8760 -13827.4043 82.5709 0.454 0.883 -0.119 172 171 170 0 0
9447.0850 -13824.5762 80.5015 0.545 0.836 -0.067 181 183 184 0 0
9444.8262 -13823.3604 79.9156 0.512 0.667 -0.541 170 170 168 0 0
9443.6162 -13822.2764 79.6173 0.466 0.666 -0.582 173 174 171 0 0
9442.5371 -13821.2061 79.3547 0.606 0.677 -0.417 173 174 173 0 0
9439.0557 -13819.8252 78.4343 0.950 -0.301 -0.086 170 170 167 0 0
9428.4434 -13817.5156 75.5607 0.035 0.553 0.832 167 167 164 0 0
8898.8486 -13739.7695 -69.1723 0.551 0.403 -0.731 177 177 177 0 0
8908.9365 -13730.7090 -66.0405 0.658 0.067 -0.750 163 163 160 0 0
9443.0127 -13800.7217 80.2159 0.999 -0.032 -0.016 184 185 185 0 0
9443.1182 -13799.8008 80.2779 0.564 -0.800 -0.205 172 171 169 0 0
9444.6719 -13799.0898 80.7359 0.497 -0.786 -0.368 172 172 168 0 0
9446.2695 -13798.3877 81.2059 0.581 -0.718 -0.385 174 175 172 0 0
9447.6631 -13796.7236 81.6533 0.326 -0.937 -0.129 171 172 168 0 0
9460.7539 -13795.8711 85.3294 0.535 -0.480 -0.695 171 171 167 0 0
9467.6807 -13784.0049 87.6806 0.016 -0.022 1.000 190 191 193 0 0
9467.3330 -13783.0273 87.6186 0.211 0.447 0.869 190 190 193 0 0
9490.3984 -13783.0703 94.0413 0.092 -0.871 -0.483 184 184 182 0 0
9497.8926 -13783.3818 96.1173 0.091 -0.875 -0.475 183 181 180 0 0
9505.2588 -13783.6826 98.1583 0.133 -0.825 -0.550 178 176 172 0 0
9170.7256 -13714.3398 7.4530 0.250 -0.816 -0.521 193 196 199 0 0
9174.5215 -13713.8643 8.5273 0.248 -0.821 -0.514 193 195 196 0 0
9150.7393 -13701.7207 2.3354 -0.020 -0.966 0.259 201 202 205 0 0
9432.7207 -13726.1426 80.0020 0.357 0.894 -0.271 202 205 209 0 0
9438.7959 -13710.1777 82.2618 0.290 0.693 0.659 203 204 209 0 0
9437.6768 -13708.9883 81.9926 0.293 0.660 0.691 202 202 206 0 0
9435.4697 -13707.5664 81.4285 0.309 0.714 0.629 199 199 202 0 0
9428.6514 -13705.1670 79.6149 0.383 0.904 -0.190 200 201 206 0 0
9417.6523 -13701.8711 76.6686 0.445 0.857 -0.259 201 203 208 0 0
9398.9268 -13692.9775 71.7696 0.671 0.568 -0.478 184 187 190 0 0
9406.0078 -13693.5254 73.7224 0.830 -0.387 -0.402 191 196 198 0 0
9409.7354 -13690.4219 74.8708 0.842 0.539 -0.022 201 203 206 0 0
9163.7061 -13608.8125 9.2515 0.003 -0.961 0.278 197 200 203 0 0
9171.5361 -13580.6826 12.4330 0.122 -0.990 -0.066 189 191 194 0 0
9174.7539 -13580.3477 13.3411 0.122 -0.990 -0.066 194 197 200 0 0
9236.5840 -13588.3555 30.2767 0.165 -0.887 -0.432 185 186 187 0 0
9045.1650 -13501.0244 -19.9296 0.253 -0.866 -0.432 179 180 180 0 0
9475.8096 -13621.3428 95.7304 0.210 -0.746 -0.632 183 184 181 0 0
9473.7051 -13619.8008 95.1992 0.068 -0.966 -0.250 189 189 184 0 0
9522.5771 -13628.1494 108.5138 0.355 -0.728 -0.587 185 185 184 0 0
9144.5137 -13483.8818 8.3499 0.580 -0.148 -0.801 158 159 157 0 0
9431.0332 -13557.5723 85.5280 0.249 -0.501 -0.829 147 147 145 0 0
9279.3369 -13493.6973 45.5506 0.164 -0.718 -0.677 124 124 121 0 0
9276.4043 -13489.4229 44.8859 0.107 -0.881 -0.461 142 142 142 0 0
9321.0781 -13492.4619 57.2200 0.343 -0.810 -0.476 152 151 152 0 0
8991.0869 -13359.2666 -29.9490 0.349 -0.820 -0.453 144 143 143 0 0
9292.4639 -13463.0176 50.2979 0.505 -0.481 -0.717 141 141 141 0 0
9410.5332 -13483.4160 82.4561 0.158 -0.784 -0.600 145 144 146 0 0
9319.2754 -14043.3340 36.0958 0.340 -0.759 -0.555 167 167 168 0 0
9328.3242 -14042.0703 38.6673 0.434 0.394 -0.811 170 171 171 0 0
9268.5068 -14010.6016 23.0820 -0.007 0.084 0.996 179 180 184 0 0
9510.1396 -13936.7373 93.1687 -0.194 -0.506 0.841 146 146 140 0 0
9401.8037 -13923.3643 63.3946 0.315 0.941 0.124 152 155 152 0 0
9394.5088 -13921.0967 61.4382 0.466 0.854 0.231 114 118 110 0 0
9392.6260 -13920.0498 60.9497 0.450 0.809 0.378 119 120 112 0 0
9390.1504 -13918.9678 60.2969 0.296 0.847 0.441 125 126 120 0 0
9389.0742 -13917.9590 60.0320 0.524 0.837 0.161 126 129 122 0 0
9440.8896 -13914.3809 74.6264 -0.080 -0.773 0.630 129 130 122 0 0
9448.1055 -13913.8975 76.6582 -0.092 -0.701 0.707 132 131 123 0 0
9452.4365 -13913.2480 77.8906 -0.093 -0.689 0.719 133 132 125 0 0
9445.1699 -13911.8916 75.9098 -0.103 0.129 0.986 130 131 124 0 0
9447.6602 -13911.1318 76.6320 -0.067 -0.629 0.775 132 133 125 0 0
8980.6523 -13822.9004 -50.6309 0.020 0.129 0.991 173 174 171 0 0
9462.5947 -13845.7158 83.1226 0.904 0.137 0.405 180 182 180 0 0
9459.5801 -13838.0391 82.5533 0.616 0.699 -0.364 187 189 192 0 0
9458.2891 -13836.9678 82.2307 0.522 0.853 -0.014 187 189 190 0 0
9457.7871 -13835.9893 82.1253 0.874 -0.482 0.059 181 182 182 0 0
9457.8887 -13835.0820 82.1859 0.711 -0.512 -0.482 179 178 177 0 0
9459.3213 -13831.5762 82.7103 0.856 -0.423 -0.298 172 174 169 0 0
9458.5039 -13830.5557 82.5182 0.536 0.834 -0.132 174 174 170 0 0
9455.3975 -13829.2520 81.6973 0.597 0.743 -0.304 172 173 171 0 0
9454.4961 -13828.2178 81.4821 0.526 0.611 -0.592 172 174 172 0 0
9453.4922 -13827.1689 81.2390 0.430 0.787 -0.442 174 176 176 0 0
9447.9072 -13825.5439 79.7373 0.348 0.907 -0.236 183 184 183 0 0
9447.3008 -13824.5400 79.6038 0.465 0.763 -0.449 187 188 190 0 0
9443.7256 -13823.1572 78.6545 0.453 0.731 -0.510 178 180 178 0 0
9436.6572 -13821.3252 76.7461 0.655 -0.483 -0.582 174 175 173 0 0
9438.7002 -13820.6504 77.3403 0.780 -0.515 -0.356 178 180 179 0 0
9431.9404 -13817.9033 75.5503 0.061 0.486 0.872 177 178 179 0 0
9430.7754 -13816.8115 75.2638 0.077 0.617 0.783 179 179 179 0 0
8914.1172 -13730.0410 -65.9139 0.076 -0.949 -0.305 182 182 182 0 0
9440.4922 -13801.2305 78.5295 0.565 -0.818 -0.114 183 184 183 0 0
9444.7686 -13800.9062 79.7351 0.796 -0.226 -0.562 191 194 194 0 0
9445.1094 -13800.0205 79.8616 0.796 -0.226 -0.562 191 192 192 0 0
9446.0664 -13799.2236 80.1571 0.369 -0.857 -0.361 185 187 186 0 0
9450.7471 -13798.9707 81.4730 0.331 -0.678 -0.656 178 178 176 0 0
9456.2432 -13797.9150 83.0449 0.457 -0.418 -0.785 181 181 181 0 0
9450.2100 -13796.0977 81.4250 0.982 -0.101 -0.160 174 174 170 0 0
9450.3145 -13795.1807 81.4866 0.982 -0.101 -0.160 171 170 168 0 0
9452.4912 -13794.5723 82.1160 0.441 -0.866 -0.235 178 176 174 0 0
9480.6758 -13784.1680 90.3546 0.298 -0.925 0.237 181 182 181 0 0
9475.3447 -13782.3975 88.9288 0.050 -0.945 -0.323 178 178 177 0 0
9498.6738 -13783.4395 95.4057 0.053 -0.939 -0.339 176 175 173 0 0
9504.4355 -13783.4785 97.0128 0.110 -0.888 -0.447 170 169 166 0 0
9172.3906 -13713.4062 6.7888 0.283 -0.639 -0.715 182 183 184 0 0
9176.1660 -13712.9307 7.8596 0.283 -0.639 -0.715 187 189 191 0 0
9461.2422 -13752.2324 86.0614 0.048 -0.967 -0.249 199 202 205 0 0
9467.6260 -13752.4629 87.8358 0.080 -0.948 -0.307 202 203 207 0 0
9426.6357 -13704.6562 78.0868 0.371 0.910 -0.186 199 200 204 0 0
8951.3164 -13565.0693 -49.6748 -0.019 -0.995 -0.103 194 196 197 0 0
9448.9600 -13636.7939 86.7273 -0.072 -0.565 0.822 174 175 176 0 0
9043.7881 -13500.5059 -21.5655 0.282 -0.807 -0.518 167 166 162 0 0
9518.8076 -13627.8867 106.5456 0.260 -0.769 -0.584 173 173 172 0 0
9521.3008 -13627.6865 107.2486 0.319 -0.771 -0.551 177 178 177 0 0
9526.0781 -13623.5840 108.7281 0.244 -0.775 0.583 170 170 169 0 0
9527.1758 -13622.9922 109.0556 0.244 -0.775 0.583 169 169 170 0 0
9143.7305 -13476.3516 7.1964 0.676 0.228 -0.701 166 167 165 0 0
9141.6992 -13474.5205 6.6942 0.662 0.598 -0.452 157 156 155 0 0
9454.3350 -13569.7656 90.6059 0.268 -0.658 -0.704 157 158 157 0 0
9455.7939 -13569.2578 91.0315 0.415 -0.498 -0.762 152 152 150 0 0
9229.7891 -13474.9551 31.2743 -0.108 -0.965 0.240 132 131 131 0 0
9267.7637 -13456.3955 42.5356 0.234 -0.794 -0.561 157 157 158 0 0
9399.9092 -13482.4453 78.5076 0.124 -0.845 -0.520 159 158 160 0 0
9066.2832 -13350.1318 -9.9499 0.053 -0.998 -0.025 144 143 143 0 0
9356.3447 -14063.9189 44.7149 0.108 0.807 0.581 181 183 186 0 0
9325.3125 -14042.1367 36.7994 0.456 0.358 -0.815 170 171 172 0 0
9322.6895 -14041.2471 36.0966 0.462 0.289 -0.839 161 162 160 0 0
9320.6445 -14040.3369 35.5565 0.422 0.400 -0.814 157 158 153 0 0
9318.1104 -14039.4375 34.8790 0.408 0.317 -0.856 153 153 149 0 0
9505.4219 -13945.1758 90.6440 -0.188 -0.450 0.873 135 138 137 0 0
9467.5820 -13927.5938 80.6746 -0.089 -0.834 0.545 157 159 159 0 0
9474.1289 -13927.0332 82.5268 -0.072 -0.743 0.666 149 151 148 0 0
9394.5146 -13921.0488 60.4540 0.467 0.843 0.267 121 124 117 0 0
9393.3604 -13920.0410 60.1665 0.446 0.752 0.485 123 124 117 0 0
9452.7588 -13914.1289 77.0019 -0.103 -0.661 0.743 136 137 131 0 0
9457.7969 -13913.5264 78.4333 -0.125 -0.424 0.897 137 138 132 0 0
8835.7285 -13831.8037 -92.7965 0.250 -0.866 -0.433 173 174 176 0 0
8990.6621 -13825.0049 -49.1887 0.044 -0.089 0.995 168 169 165 0 0
8982.5625 -13823.0059 -51.3852 -0.026 -0.274 0.961 180 180 178 0 0
8979.9619 -13821.5195 -52.0605 -0.024 0.038 0.999 171 172 168 0 0
8983.7324 -13820.6416 -50.9741 0.003 -0.781 0.625 163 162 159 0 0
9469.4072 -13850.0576 83.9289 0.497 0.866 -0.046 182 183 183 0 0
9458.9238 -13837.9004 81.4247 0.337 0.937 0.087 188 190 191 0 0
9456.6807 -13836.7178 80.8388 0.367 0.929 0.048 184 185 185 0 0
9455.8418 -13835.6973 80.6399 0.741 -0.034 -0.670 172 172 169 0 0
9454.9463 -13834.6689 80.4257 0.724 -0.116 -0.680 176 175 171 0 0
9457.6172 -13834.0674 81.1947 0.484 0.025 -0.875 175 177 176 0 0
9456.1660 -13832.9717 80.8272 0.495 -0.718 -0.489 165 165 163 0 0
9458.0830 -13832.2832 81.3881 0.517 -0.659 -0.547 171 171 169 0 0
9458.4355 -13831.4062 81.5178 0.703 -0.547 -0.455 177 177 178 0 0
9460.4004 -13830.7266 82.0919 0.759 -0.102 -0.643 165 165 160 0 0
9458.5801 -13829.5830 81.6228 0.525 -0.803 -0.282 168 169 164 0 0
9453.1934 -13827.9932 80.1714 0.551 0.687 -0.473 163 163 161 0 0
9451.6055 -13826.8711 79.7665 0.357 0.923 -0.146 166 166 166 0 0
9447.4443 -13825.4229 78.6529 0.330 0.941 -0.078 178 178 178 0 0
9446.5215 -13824.3779 78.4316 0.492 0.798 -0.348 177 178 179 0 0
9444.7012 -13823.2178 77.9633 0.517 0.764 -0.386 171 172 169 0 0
9435.5508 -13821.1191 75.4763 0.573 -0.573 -0.587 173 175 173 0 0
9438.2852 -13820.5322 76.2623 0.780 -0.515 -0.356 171 172 173 0 0
9435.1807 -13818.2588 75.4739 0.092 0.472 0.877 186 188 190 0 0
9435.2979 -13817.3359 75.5392 0.103 0.677 0.729 183 185 187 0 0
9432.2129 -13807.5225 75.0231 0.486 -0.679 -0.550 174 174 171 0 0
9433.7080 -13806.7861 75.4677 0.510 -0.667 -0.543 179 180 180 0 0
9436.0859 -13805.2354 76.1880 0.312 -0.929 -0.200 174 175 176 0 0
9438.3213 -13804.6084 76.8360 0.456 -0.868 -0.198 163 163 161 0 0
9439.8369 -13803.8828 77.2859 0.422 -0.907 0.012 174 174 172 0 0
9441.8613 -13803.2314 77.8756 0.640 -0.750 -0.167 185 186 187 0 0
9443.4844 -13802.5254 78.3548 0.765 -0.544 -0.344 182 181 182 0 0
9443.6797 -13801.6172 78.4417 0.294 -0.858 0.421 177 178 177 0 0
9446.0322 -13800.0850 79.1543 0.596 -0.575 0.560 186 188 188 0 0
9446.8877 -13799.2754 79.4223 0.448 -0.729 0.517 188 190 191 0 0
9448.4336 -13798.5664 79.8802 0.342 -0.922 0.179 190 189 189 0 0
9449.1973 -13797.7451 80.1229 0.290 -0.955 0.057 193 192 192 0 0
9451.7666 -13797.1895 80.8619 0.097 -0.889 0.447 191 191 193 0 0
9456.0703 -13796.8936 82.0770 0.187 -0.974 -0.129 188 190 190 0 0
9456.4473 -13796.0215 82.2133 0.589 -0.039 -0.807 192 194 195 0 0
9457.1260 -13795.1943 82.4326 0.482 -0.349 -0.804 188 190 190 0 0
9462.5225 -13795.0742 83.9472 0.365 -0.909 -0.201 185 185 187 0 0
9457.5859 -13793.4082 82.6246 -0.008 -0.296 0.955 193 193 196 0 0
9462.4961 -13785.8203 84.2675 -0.067 -0.960 0.271 173 173 172 0 0
9479.2754 -13783.8740 89.0329 0.545 -0.678 0.493 181 183 185 0 0
9481.9229 -13783.3848 89.7914 0.463 -0.881 -0.097 173 175 176 0 0
9341.7441 -13752.7715 51.6374 0.051 -0.299 0.953 192 192 195 0 0
9357.7617 -13754.4336 56.0622 -0.090 -0.277 0.957 191 192 195 0 0
9157.7969 -13709.6475 1.6751 0.220 -0.684 -0.695 190 193 195 0 0
9438.8604 -13750.9375 78.8858 0.020 -0.993 -0.114 197 199 201 0 0
9448.9785 -13749.9307 81.7537 0.551 0.348 -0.758 185 186 186 0 0
9447.9014 -13748.7930 81.4924 0.551 0.348 -0.758 190 190 192 0 0
9446.7793 -13747.6455 81.2190 0.510 0.632 -0.583 200 201 205 0 0
9405.9092 -13710.9424 71.0778 0.259 -0.639 0.724 196 198 201 0 0
9410.8340 -13710.9727 72.4551 0.322 -0.555 0.767 197 200 202 0 0
9416.7520 -13695.6768 74.6527 -0.043 0.134 0.990 192 193 197 0 0
9014.4756 -13553.1240 -32.9033 0.613 0.524 -0.591 202 204 207 0 0
9012.5000 -13551.3672 -33.3941 0.613 0.524 -0.591 203 204 208 0 0
9453.7295 -13655.1875 86.4359 0.556 0.045 -0.830 196 197 199 0 0
9239.9463 -13585.6807 29.0555 0.134 -0.824 -0.551 194 195 199 0 0
9457.5635 -13616.9521 88.8618 0.032 -0.967 -0.253 151 151 147 0 0
9115.1797 -13468.4873 -1.7206 0.508 -0.190 -0.840 145 147 144 0 0
9119.7236 -13468.6963 -0.4564 0.381 -0.399 -0.834 151 151 152 0 0
9448.0840 -13568.6562 87.9173 0.279 -0.575 -0.769 160 160 157 0 0
9451.0010 -13568.6035 88.7356 0.461 0.139 -0.876 166 166 166 0 0
9418.3555 -13557.2842 79.9985 0.269 0.760 0.592 169 168 169 0 0
9416.1084 -13555.5732 79.4300 0.235 0.652 0.721 167 167 167 0 0
9402.2373 -13549.1494 75.7746 0.187 -0.974 -0.128 166 166 169 0 0
9434.7666 -13554.5996 84.6871 0.238 -0.555 -0.797 156 156 159 0 0
9262.7793 -13492.4307 38.7461 0.220 -0.666 -0.713 115 117 115 0 0
9406.7510 -13481.7715 79.4221 0.165 -0.752 -0.638 145 144 145 0 0
9058.2734 -13348.2676 -13.3955 0.038 -0.999 0.011 159 159 160 0 0
9160.3066 -13378.9639 14.0783 0.136 -0.901 -0.411 159 159 160 0 0
9322.6387 -14042.1924 35.0224 0.023 0.508 0.861 177 177 178 0 0
9320.1172 -14041.2979 34.3464 0.011 0.449 0.893 171 174 176 0 0
9317.4658 -14040.4033 33.6339 -0.066 0.320 0.945 147 148 149 0 0
9315.3652 -14039.4893 33.0769 -0.067 0.323 0.944 142 143 139 0 0
9077.2695 -13960.8799 -30.9598 -0.082 -0.886 0.457 148 151 150 0 0
9529.1846 -13935.8066 96.7345 -0.135 -0.020 0.991 156 156 146 0 0
9492.8203 -13932.3486 86.6525 -0.142 -0.340 0.930 154 156 151 0 0
9461.3115 -13928.1318 77.9598 -0.100 -0.849 0.519 152 153 148 0 0
9459.9404 -13912.7041 78.1195 -0.097 0.183 0.978 151 154 150 0 0
9544.9902 -13909.4561 102.0995 -0.083 -0.965 0.249 170 169 167 0 0
8832.9453 -13835.5010 -95.0940 0.299 0.901 0.315 188 189 190 0 0
9019.5957 -13836.1348 -42.7412 0.205 0.942 0.267 170 172 167 0 0
9008.1016 -13832.6699 -45.8444 0.136 0.793 0.593 184 185 185 0 0
8994.0967 -13827.7129 -49.5990 0.176 0.906 0.385 194 194 197 0 0
8986.9609 -13825.8164 -51.5346 0.185 0.914 0.362 187 189 190 0 0
8980.7334 -13823.9961 -53.2179 0.225 0.944 0.239 170 172 171 0 0
8982.0088 -13822.8779 -52.8204 0.088 -0.076 0.993 171 171 168 0 0
8981.3721 -13821.5781 -52.9532 -0.017 -0.627 0.779 178 179 177 0 0
8986.4004 -13820.8223 -51.5156 -0.050 -0.787 0.615 175 175 175 0 0
8989.8203 -13819.9180 -50.5240 0.077 -0.974 0.215 174 175 173 0 0
8994.7949 -13819.1689 -49.1016 0.082 -0.985 0.149 177 177 177 0 0
9465.6084 -13843.1943 82.1631 0.440 -0.004 0.898 182 184 185 0 0
9454.5322 -13835.4805 79.3274 0.292 0.956 0.037 186 187 187 0 0
9450.0791 -13834.0264 78.1290 0.345 0.939 0.008 195 196 197 0 0
9452.7773 -13832.5010 78.9399 0.453 -0.266 -0.851 190 193 196 0 0
9454.5859 -13831.7969 79.4723 0.420 -0.356 -0.835 194 195 198 0 0
9455.1377 -13830.9414 79.6575 0.508 -0.252 -0.823 195 197 201 0 0
9457.0088 -13830.2480 80.2068 0.503 -0.214 -0.837 193 196 200 0 0
9456.4795 -13829.2607 80.0931 0.429 -0.744 -0.512 188 189 193 0 0
9451.7188 -13827.7480 78.8108 0.551 0.687 -0.473 180 180 184 0 0
9450.6172 -13826.6846 78.5392 0.364 0.925 -0.105 184 185 187 0 0
9446.7344 -13825.2705 77.4995 0.330 0.941 -0.078 183 184 185 0 0
9447.2559 -13824.4072 77.6762 0.515 0.820 -0.249 184 185 187 0 0
9434.7803 -13820.9561 74.2972 -0.130 -0.839 0.529 171 173 173 0 0
9438.8652 -13820.5430 75.4583 -0.122 -0.648 0.752 176 174 175 0 0
9435.9600 -13815.4805 74.8216 -0.054 -0.004 0.999 171 170 169 0 0
9433.9893 -13805.8174 74.6097 0.335 -0.939 -0.080 168 168 167 0 0
9436.4697 -13805.2217 75.3268 0.313 -0.943 -0.112 171 171 168 0 0
9438.1465 -13804.5166 75.8221 0.366 -0.930 -0.026 171 174 173 0 0
9439.5195 -13803.7705 76.2337 0.290 -0.904 0.312 167 168 165 0 0
9462.5889 -13793.1670 83.0814 0.012 0.162 0.987 193 193 195 0 0
9463.6162 -13790.5498 83.4619 0.115 0.415 0.903 165 166 163 0 0
9475.3555 -13787.7646 86.8544 0.294 -0.616 0.731 170 170 168 0 0
9476.8584 -13785.2510 87.3648 0.359 -0.564 0.743 179 180 180 0 0
9479.8877 -13783.9023 88.2623 0.814 -0.569 0.114 181 182 183 0 0
9480.5146 -13783.0879 88.4671 0.834 -0.510 0.210 181 182 183 0 0
9484.3340 -13780.0537 89.6457 0.472 0.768 -0.432 172 176 177 0 0
9485.1035 -13779.2676 89.8895 0.466 0.570 -0.677 177 180 180 0 0
9482.2266 -13777.8809 89.1312 0.465 0.536 -0.705 191 193 195 0 0
9358.4736 -13754.4736 55.2315 -0.115 -0.457 0.882 195 198 201 0 0
9362.3652 -13754.1260 56.3358 -0.100 -0.386 0.917 197 199 204 0 0
9377.1133 -13755.6104 60.4216 -0.001 -0.637 0.771 194 197 200 0 0
9443.3428 -13749.7754 79.2121 0.516 -0.204 -0.832 185 187 186 0 0
9446.1270 -13749.3359 80.0088 0.574 0.307 -0.759 192 193 194 0 0
9445.3711 -13748.2549 79.8350 0.576 0.400 -0.713 193 195 197 0 0
9444.3213 -13747.1182 79.5804 0.524 0.588 -0.616 200 203 207 0 0
9447.2695 -13746.7148 80.4219 0.482 0.088 -0.872 198 199 202 0 0
9348.0312 -13710.2373 53.8625 0.349 0.160 0.923 199 201 205 0 0
9435.5947 -13720.7354 78.0626 0.391 -0.232 -0.891 202 203 207 0 0
9421.5664 -13714.0508 74.3621 0.293 -0.804 -0.517 204 205 209 0 0
9423.9434 -13713.5713 75.0462 0.275 -0.864 -0.420 205 206 210 0 0
9073.2227 -13601.7344 -19.4211 0.322 -0.135 -0.937 191 191 193 0 0
9075.6074 -13601.0615 -18.7283 0.334 -0.109 -0.936 193 194 198 0 0
9016.7480 -13556.0918 -33.6576 0.569 0.618 -0.542 194 195 199 0 0
9016.8818 -13554.8613 -33.5766 0.537 -0.130 -0.833 196 196 201 0 0
9017.4707 -13553.7432 -33.3720 0.537 -0.130 -0.833 200 201 204 0 0
9481.3242 -13659.2559 93.0643 0.382 -0.671 0.635 194 194 200 0 0
9520.2832 -13627.2012 105.1276 0.382 -0.910 0.161 145 147 141 0 0
9418.3301 -13556.1670 79.0258 0.122 0.496 0.860 171 171 168 0 0
9415.5859 -13554.2959 78.3217 0.123 0.557 0.821 162 163 161 0 0
9410.9092 -13551.8037 77.0975 0.102 0.601 0.793 168 168 169 0 0
9428.7988 -13514.7764 83.4240 0.203 -0.784 -0.586 149 149 149 0 0
9405.6475 -13481.2393 78.1113 0.164 -0.768 -0.619 150 150 152 0 0
9347.5010 -14070.0029 40.0103 0.301 0.883 -0.359 177 181 183 0 0
9342.2666 -14068.3613 38.5956 0.376 0.920 -0.112 181 181 182 0 0
9338.5791 -14067.5889 37.5855 0.463 0.886 -0.016 172 173 175 0 0
9336.0713 -14066.7529 36.9095 0.355 0.935 0.011 169 171 169 0 0
9323.5957 -14041.1592 34.3009 0.008 0.454 0.891 169 171 171 0 0
9322.0381 -14040.2334 33.8954 -0.066 0.320 0.945 168 171 172 0 0
9320.3330 -14039.3105 33.4483 -0.068 0.317 0.946 172 176 178 0 0
9318.5645 -14038.3867 32.9831 -0.084 0.209 0.974 169 173 176 0 0
9462.7275 -14011.2070 74.4933 -0.108 -0.227 0.968 174 175 177 0 0
9062.4639 -13973.2891 -36.7675 0.154 -0.910 -0.384 163 163 162 0 0
9525.1211 -13938.1465 94.6164 0.161 -0.855 0.492 138 141 135 0 0
9527.7793 -13936.5537 95.4201 0.379 0.454 0.807 141 141 136 0 0
9496.4072 -13932.4775 86.7387 -0.112 -0.866 0.487 138 139 135 0 0
9467.3428 -13928.3887 78.7066 -0.100 -0.849 0.519 133 136 131 0 0
8905.7334 -13888.7578 -77.8810 0.268 0.961 -0.064 157 155 152 0 0
8894.2490 -13885.5420 -80.9983 0.309 0.933 -0.185 138 140 135 0 0
8886.0762 -13883.7803 -83.2353 0.308 0.916 -0.256 132 133 128 0 0
9522.8252 -13899.2461 95.3398 0.368 -0.545 -0.753 175 174 173 0 0
9525.3018 -13898.5684 96.0602 0.368 -0.545 -0.753 176 177 175 0 0
9528.0137 -13897.9111 96.8462 0.417 -0.482 -0.771 180 180 180 0 0
9529.8066 -13897.1875 97.3763 0.420 -0.478 -0.772 178 179 178 0 0
9531.4756 -13896.4561 97.8715 0.296 -0.774 -0.559 167 170 167 0 0
9534.8711 -13895.8623 98.8475 0.333 -0.766 -0.550 171 171 167 0 0
8834.8994 -13835.5830 -95.9352 0.690 0.628 -0.360 186 186 188 0 0
8837.0576 -13830.4258 -95.1464 0.270 -0.654 -0.707 194 197 200 0 0
9018.7656 -13835.9883 -44.2274 0.244 0.949 0.202 191 195 198 0 0
9013.0469 -13834.2617 -45.7751 0.114 0.741 0.662 194 197 199 0 0
9010.7109 -13832.8340 -46.3820 0.136 0.781 0.609 192 196 198 0 0
9006.5312 -13831.2334 -47.5014 0.128 0.784 0.607 191 192 195 0 0
9502.0918 -13874.7646 90.3692 0.853 0.095 -0.513 200 202 204 0 0
9499.7900 -13873.6650 89.7602 0.754 -0.497 -0.429 201 201 205 0 0
9499.2832 -13872.7324 89.6506 0.401 0.905 0.140 190 191 195 0 0
8987.1465 -13822.0537 -52.6313 -0.036 -0.782 0.622 174 175 174 0 0
8990.8506 -13821.1748 -51.5585 -0.026 -0.738 0.675 170 169 169 0 0
8994.0146 -13820.2480 -50.6357 0.016 -0.774 0.633 165 164 160 0 0
8998.1348 -13819.4189 -49.4476 0.055 -0.699 0.713 157 156 150 0 0
9450.2764 -13827.5059 77.4567 0.644 0.529 -0.553 197 197 200 0 0
9449.0742 -13826.4287 77.1563 0.150 0.857 0.493 181 183 183 0 0
9444.7227 -13807.2383 76.6078 -0.142 -0.243 0.959 167 167 164 0 0
9468.2168 -13793.9492 83.6845 -0.037 -0.350 0.936 185 185 185 0 0
9467.0469 -13792.8506 83.3939 -0.106 -0.359 0.927 190 191 192 0 0
9472.3711 -13792.7402 84.8955 -0.054 -0.691 0.721 189 190 191 0 0
9478.2051 -13785.3955 86.7954 0.096 -0.397 0.913 177 178 176 0 0
9480.3535 -13782.9922 87.4841 0.564 -0.643 0.518 182 182 182 0 0
9484.4717 -13780.9180 88.7156 0.368 -0.141 -0.919 172 173 174 0 0
9481.9268 -13779.5898 88.0466 0.467 0.523 -0.713 161 165 166 0 0
9479.2861 -13778.2412 87.3511 0.476 0.521 -0.709 164 165 161 0 0
9474.3525 -13774.6709 86.0889 0.301 -0.827 -0.474 186 190 192 0 0
9476.8682 -13774.1709 86.8142 0.301 -0.827 -0.474 184 184 185 0 0
9443.4189 -13749.7129 78.2659 0.483 0.244 -0.841 194 197 198 0 0
9442.3574 -13748.5752 78.0072 0.474 0.208 -0.856 197 201 203 0 0
9442.7939 -13747.7080 78.1605 0.478 0.226 -0.849 196 197 201 0 0
