ply
format ascii 1.0
element vertex 763
property float x
property float y
property float z
property float nx
property float ny
property float nz
property uchar diffuse_red
property uchar diffuse_green
property uchar diffuse_blue
property uchar class
property uchar detection
end_header
9025.1436 -13713.7910 65.1607 0.088 -0.305 0.948 72 62 55 0 0
9026.1533 -13712.7559 65.4681 0.078 -0.440 0.895 77 64 56 0 0
9026.0986 -13711.5967 65.5342 0.296 -0.204 0.933 71 62 52 0 0
9026.9551 -13708.2393 65.9636 0.304 -0.233 0.924 56 55 50 0 0
9029.1689 -13701.5908 66.9355 0.354 -0.383 0.853 34 38 41 0 0
9029.0850 -13700.4277 66.9949 0.340 -0.104 0.935 39 41 44 0 0
9028.1484 -13699.1562 66.8616 0.243 0.304 0.921 51 54 57 0 0
9027.4541 -13697.9150 66.7831 0.417 0.701 0.579 66 68 69 0 0
9025.5986 -13696.5244 66.4423 0.424 0.727 0.540 76 79 80 0 0
9022.4014 -13691.4824 66.0348 0.671 -0.063 0.739 49 45 45 0 0
9022.2520 -13690.3037 66.0798 0.758 0.049 0.651 45 40 40 0 0
9019.9287 -13684.1914 65.9504 0.261 0.458 0.850 40 39 36 0 0
9018.3291 -13682.8135 65.6685 0.203 0.444 0.872 41 40 38 0 0
9021.9863 -13682.1436 66.5727 -0.070 -0.187 0.980 40 39 37 0 0
9010.0283 -13674.6787 64.2735 -0.103 0.104 0.989 40 36 34 0 0
9012.6807 -13673.8760 64.9507 -0.090 0.228 0.969 40 39 36 0 0
9034.9570 -13668.8896 70.5192 0.292 0.844 0.449 39 37 35 0 0
9021.3750 -13663.4404 67.7017 0.152 0.417 0.896 45 40 35 0 0
9019.8330 -13662.0488 67.4342 0.124 0.323 0.938 45 40 37 0 0
9016.0166 -13660.3203 66.6560 0.158 0.340 0.927 43 39 36 0 0
9021.3965 -13659.9453 67.9444 0.370 -0.825 0.428 42 38 37 0 0
9019.3115 -13658.4697 67.5555 0.412 -0.800 -0.437 36 35 37 0 0
9021.6797 -13657.6543 68.1668 0.466 -0.787 -0.405 32 32 35 0 0
9024.6895 -13656.9395 68.9219 0.816 -0.530 -0.230 30 29 33 0 0
9019.5283 -13654.9971 67.8425 0.394 0.407 0.824 29 29 31 0 0
9018.3916 -13653.6562 67.6670 0.401 0.515 0.757 31 29 30 0 0
9017.3789 -13652.3330 67.5193 0.259 0.350 0.900 32 31 30 0 0
9010.9902 -13638.4258 66.9656 0.143 0.402 0.905 60 60 62 0 0
9009.3916 -13636.9922 66.6880 0.131 0.511 0.849 47 48 49 0 0
9007.0791 -13635.4414 66.2506 0.018 0.284 0.959 49 48 48 0 0
9001.2021 -13633.3125 65.0160 -0.039 0.240 0.970 51 50 48 0 0
9001.4854 -13632.1729 65.1599 -0.019 0.232 0.973 47 45 44 0 0
8999.5918 -13630.6807 64.8170 -0.044 0.109 0.993 47 43 42 0 0
8997.5693 -13629.1631 64.4456 -0.048 0.102 0.994 71 66 52 0 0
8996.2900 -13627.7656 64.2403 -0.048 0.102 0.994 63 58 42 0 0
8990.7227 -13625.6582 63.0767 0.020 0.369 0.929 49 43 36 0 0
9002.6172 -13626.4336 65.8161 -0.072 -0.641 0.764 40 36 33 0 0
9005.6367 -13625.7510 66.5714 -0.070 -0.547 0.834 36 33 30 0 0
9029.4951 -13625.0459 72.2198 0.231 -0.960 0.160 30 29 28 0 0
8983.7373 -13611.3164 62.4127 0.549 0.479 0.685 41 38 35 0 0
8988.5459 -13608.5527 63.7295 0.036 0.046 0.998 42 39 35 0 0
8999.7588 -13606.9365 66.4715 0.048 -0.999 -0.008 48 43 39 0 0
9005.6797 -13606.7949 67.8712 0.093 -0.991 -0.095 41 37 36 0 0
9025.9541 -13592.7617 73.5851 0.066 0.577 0.814 69 70 75 0 0
9015.7441 -13586.1113 71.6409 0.245 -0.175 0.954 69 74 76 0 0
9016.0107 -13584.9775 71.7806 0.245 -0.175 0.954 72 75 78 0 0
9020.5059 -13579.9238 73.1796 0.872 -0.389 0.298 72 75 77 0 0
9021.5498 -13578.9443 73.4911 0.958 0.047 0.282 71 74 76 0 0
9021.4727 -13577.7471 73.5545 0.958 0.047 0.282 69 72 75 0 0
9025.8887 -13566.8037 75.3356 0.081 -0.959 0.272 39 37 37 0 0
9006.2686 -13561.6338 71.0818 -0.101 0.226 0.969 38 36 34 0 0
8983.0078 -13553.2705 66.1905 -0.035 0.446 0.894 54 55 59 0 0
8958.8115 -13539.6934 61.4346 0.597 0.677 0.431 55 57 58 0 0
8958.4014 -13538.3750 61.4278 0.779 0.436 0.450 55 59 60 0 0
8962.2139 -13535.4922 62.5191 -0.015 0.017 1.000 52 48 46 0 0
9038.0088 -13539.8447 80.0149 0.347 0.888 -0.301 38 36 36 0 0
8927.2217 -13510.4658 56.0075 0.067 -0.468 0.881 36 35 37 0 0
8926.7334 -13507.8418 56.0715 0.400 -0.233 0.887 29 29 31 0 0
8925.8145 -13505.1182 56.0410 0.342 0.445 0.827 35 31 30 0 0
8911.8750 -13493.0889 53.5873 -0.054 0.285 0.957 30 30 35 0 0
8906.9229 -13490.6748 52.5892 -0.048 0.326 0.944 55 56 58 0 0
8962.5898 -13491.1592 65.6233 0.426 0.807 0.410 25 26 26 0 0
8962.1025 -13489.8047 65.6011 0.791 0.269 -0.550 31 31 29 0 0
8941.3926 -13479.8496 61.4170 0.539 -0.329 -0.776 49 41 37 0 0
8954.9121 -13478.1309 64.7073 -0.100 -0.398 0.912 93 93 97 0 0
8955.1504 -13476.9443 64.8441 -0.148 -0.213 0.966 94 97 100 0 0
8958.8018 -13475.3506 65.8097 -0.145 -0.178 0.973 78 82 87 0 0
8958.3398 -13473.9932 65.7937 -0.198 -0.410 0.890 78 81 87 0 0
8952.5830 -13471.3232 64.6238 0.007 0.380 0.925 78 82 86 0 0
8958.9023 -13471.6436 66.0856 -0.071 0.144 0.987 76 81 84 0 0
8957.8467 -13470.1357 65.9402 -0.025 0.293 0.956 80 82 86 0 0
8954.6816 -13468.0996 65.3357 -0.029 0.351 0.936 80 81 85 0 0
8956.7822 -13467.3779 65.8780 -0.175 -0.191 0.966 81 81 84 0 0
8949.5098 -13463.0527 64.4651 -0.127 0.132 0.983 82 82 86 0 0
8945.5137 -13460.7910 63.6809 -0.154 0.047 0.987 72 75 79 0 0
8944.6650 -13459.3213 63.5818 -0.047 0.339 0.940 86 87 89 0 0
8947.0264 -13458.6641 64.1808 0.064 0.509 0.858 85 85 90 0 0
8940.8545 -13455.8379 62.9243 0.029 0.485 0.874 84 85 89 0 0
8931.2891 -13452.1367 60.9307 0.117 0.696 0.709 77 76 76 0 0
8902.2461 -13439.5732 54.9679 -0.047 -0.086 0.995 73 64 60 0 0
8902.0000 -13438.2217 55.0020 -0.036 0.023 0.999 85 75 72 0 0
8889.1074 -13433.5879 52.2910 -0.061 -0.394 0.917 83 76 75 0 0
8886.6221 -13431.6436 51.8398 0.048 0.139 0.989 87 83 81 0 0
8885.4492 -13428.7373 51.7622 -0.005 0.186 0.982 97 94 93 0 0
8881.4072 -13425.0723 51.0627 -0.049 0.158 0.986 108 104 101 0 0
8890.6650 -13426.2100 53.1585 -0.186 -0.234 0.954 115 112 112 0 0
8891.1641 -13425.0439 53.3549 -0.179 -0.260 0.949 107 104 106 0 0
8896.0732 -13425.0479 54.5072 -0.181 -0.203 0.962 101 99 100 0 0
8883.1816 -13413.8037 52.2460 -0.129 -0.062 0.990 93 94 91 0 0
8872.7725 -13409.6875 50.0825 -0.145 -0.400 0.905 100 99 99 0 0
8880.5166 -13410.4707 51.8470 -0.115 0.016 0.993 107 105 106 0 0
8879.5732 -13408.9072 51.7320 -0.053 0.215 0.975 110 109 110 0 0
8868.6621 -13404.6289 49.4617 0.069 0.470 0.880 110 110 113 0 0
8874.9014 -13405.0146 50.9001 0.000 0.029 1.000 106 104 106 0 0
8876.1113 -13404.0332 51.2510 0.003 -0.258 0.966 102 100 100 0 0
8888.2441 -13402.1377 54.2281 0.111 -0.657 0.745 107 107 110 0 0
8887.4932 -13400.6250 54.1545 0.240 0.393 0.888 109 109 110 0 0
8884.6455 -13398.5283 53.6288 0.222 0.700 0.679 111 111 111 0 0
8879.0039 -13395.6504 52.5004 0.222 0.700 0.679 112 112 111 0 0
8877.0869 -13393.8037 52.1758 -0.001 0.271 0.963 105 105 103 0 0
8873.8447 -13391.5830 51.5660 -0.137 -0.187 0.973 101 101 102 0 0
8874.3896 -13390.4199 51.7729 -0.179 -0.372 0.911 85 85 84 0 0
8875.1719 -13389.3242 52.0312 -0.174 -0.285 0.943 74 74 72 0 0
8877.0322 -13388.5332 52.5216 -0.180 -0.351 0.919 68 69 68 0 0
8878.3027 -13387.5781 52.8849 -0.149 -0.132 0.980 61 59 59 0 0
8874.1416 -13385.0850 52.0777 -0.051 0.234 0.971 59 58 55 0 0
8888.9814 -13340.7734 58.5758 0.026 0.511 0.859 114 112 113 0 0
8955.0361 -13345.9736 73.7278 -0.060 -0.794 0.605 121 121 120 0 0
8959.5322 -13346.1348 74.7721 0.391 -0.894 0.218 123 123 121 0 0
8953.4307 -13330.1621 74.4265 -0.113 0.060 0.992 57 50 47 0 0
8951.3379 -13328.2002 74.0688 -0.113 0.060 0.992 55 47 44 0 0
8946.7373 -13325.4121 73.1786 -0.126 -0.024 0.992 55 45 43 0 0
8916.1689 -13314.0781 66.7740 0.234 0.655 0.719 57 47 45 0 0
8910.5625 -13310.9268 65.6724 0.246 0.679 0.692 56 47 43 0 0
8908.1514 -13308.8223 65.2497 0.236 0.704 0.670 54 46 41 0 0
8899.8760 -13303.4561 63.6720 0.036 0.056 0.998 53 45 42 0 0
9166.6387 -13937.8105 82.0716 0.216 -0.317 0.923 67 68 65 0 0
9162.2646 -13936.8555 81.1067 0.110 -0.481 0.870 68 68 68 0 0
9160.4150 -13935.8604 80.7389 0.031 -0.645 0.763 69 67 68 0 0
9162.7637 -13934.8066 81.3633 0.020 -0.490 0.872 79 77 75 0 0
9164.8584 -13932.7402 81.9968 0.023 -0.137 0.990 134 141 151 0 0
9165.0977 -13931.7178 82.1226 0.022 -0.214 0.976 103 127 150 0 0
9165.9170 -13930.6885 82.3855 -0.012 -0.001 1.000 134 135 140 0 0
9164.5234 -13929.6826 82.1257 -0.015 -0.162 0.987 139 141 143 0 0
9166.7217 -13928.6416 82.7140 -0.006 -0.386 0.922 78 78 83 0 0
9168.0996 -13927.6104 83.1083 -0.033 -0.323 0.946 71 69 68 0 0
9159.3867 -13926.6602 81.1219 -0.041 0.364 0.930 70 68 67 0 0
9146.2520 -13924.6953 78.1631 -0.099 0.291 0.952 71 67 66 0 0
9133.0879 -13922.6973 75.1998 -0.067 -0.694 0.717 70 69 66 0 0
9138.9941 -13921.6270 76.6629 -0.067 -0.706 0.705 69 69 65 0 0
9145.0342 -13920.5645 78.1571 -0.062 -0.749 0.660 72 69 68 0 0
9153.0479 -13919.5029 80.1157 -0.062 -0.749 0.660 75 72 74 0 0
9160.5928 -13918.4521 81.9634 -0.017 0.061 0.998 159 156 154 0 0
9159.8330 -13917.4287 81.8541 -0.008 0.176 0.984 166 167 171 0 0
9147.0879 -13911.2432 79.2739 0.022 0.667 0.745 58 55 56 0 0
9143.7129 -13909.1611 78.6208 -0.008 0.451 0.893 53 52 51 0 0
9130.4775 -13908.0713 75.5789 -0.061 0.078 0.995 46 48 48 0 0
9140.1650 -13907.0684 77.9277 -0.063 -0.324 0.944 59 60 59 0 0
9153.2510 -13906.0947 81.0745 0.167 0.310 0.936 161 160 160 0 0
9147.7236 -13905.0293 79.8456 0.096 0.685 0.722 160 159 163 0 0
9144.8066 -13903.9736 79.2306 0.096 0.685 0.722 164 166 168 0 0
9147.7773 -13902.9561 79.9991 0.016 0.393 0.919 166 167 167 0 0
9127.8135 -13901.7646 75.3802 -0.077 0.201 0.977 160 162 164 0 0
9128.0039 -13899.6660 75.5677 -0.068 -0.113 0.991 151 152 153 0 0
9128.2969 -13898.6182 75.7077 -0.068 -0.113 0.991 147 145 146 0 0
9128.2852 -13897.5684 75.7764 -0.071 -0.102 0.992 145 144 144 0 0
9144.1299 -13896.6914 79.5661 0.710 -0.503 -0.493 135 134 134 0 0
9144.0420 -13887.3184 80.1820 0.313 0.950 0.020 84 79 71 0 0
9139.2891 -13886.1924 79.1396 0.225 0.949 0.219 78 74 68 0 0
9135.4023 -13885.0762 78.3004 0.225 0.949 0.219 64 56 52 0 0
9132.1055 -13883.9658 77.5996 0.246 0.951 0.187 63 55 50 0 0
9124.1094 -13882.7588 75.7992 0.110 0.849 0.516 70 67 63 0 0
9103.2236 -13879.1416 71.1281 0.142 0.803 0.579 60 55 51 0 0
9099.1377 -13877.9814 70.2453 0.013 0.605 0.796 58 53 49 0 0
9092.3652 -13874.5977 68.8806 -0.067 -0.243 0.968 62 61 57 0 0
9093.5342 -13873.5479 69.2271 -0.076 -0.206 0.976 65 62 59 0 0
9092.6895 -13872.4482 69.1029 -0.080 -0.375 0.923 70 67 62 0 0
9090.1484 -13871.3037 68.5826 -0.061 -0.381 0.922 71 69 66 0 0
9092.4941 -13870.2861 69.2038 -0.035 0.245 0.969 66 66 65 0 0
9089.3848 -13869.1221 68.5511 -0.009 0.385 0.923 70 69 69 0 0
9095.0234 -13868.1982 69.9412 -0.060 0.148 0.987 70 68 68 0 0
9091.1836 -13867.0107 69.1179 -0.078 -0.084 0.993 71 70 69 0 0
9091.1396 -13865.9287 69.1811 -0.065 -0.061 0.996 68 67 67 0 0
9091.3633 -13864.8545 69.3067 -0.037 -0.511 0.859 70 69 68 0 0
9091.3213 -13863.7715 69.3703 0.015 -0.861 0.508 70 68 68 0 0
9100.5596 -13862.9795 71.5990 0.066 -0.937 0.343 71 71 71 0 0
9099.8789 -13861.8818 71.5133 -0.068 -0.184 0.981 64 65 66 0 0
9099.0107 -13860.7783 71.3839 -0.079 -0.121 0.990 62 63 63 0 0
9098.4580 -13859.6826 71.3281 -0.084 -0.044 0.995 67 65 60 0 0
9103.8770 -13858.7891 72.6647 0.031 -1.000 0.006 66 59 51 0 0
9111.6279 -13856.9131 74.6166 -0.064 -0.925 0.374 62 56 53 0 0
9099.8105 -13854.3428 72.0093 -0.163 -0.598 0.784 63 56 52 0 0
9119.2822 -13853.9893 76.6174 -0.177 -0.142 0.974 64 55 48 0 0
9120.5693 -13852.9727 76.9894 -0.169 -0.202 0.965 65 55 47 0 0
9121.9180 -13851.9600 77.3756 -0.166 -0.257 0.952 66 58 47 0 0
9115.2344 -13847.4297 76.1099 -0.177 -0.324 0.929 63 56 43 0 0
9118.4697 -13846.4961 76.9351 -0.173 -0.333 0.927 70 59 47 0 0
9107.9092 -13836.3828 75.1360 -0.145 0.259 0.955 81 70 52 0 0
9093.8936 -13824.8545 72.6196 -0.165 -0.658 0.735 66 57 44 0 0
9103.2334 -13824.2803 74.8574 -0.173 -0.650 0.740 65 56 46 0 0
9118.5566 -13824.0508 78.4802 -0.175 -0.627 0.759 66 56 47 0 0
9094.5068 -13810.7432 73.7226 -0.037 -0.150 0.988 57 52 43 0 0
9093.0742 -13809.5625 73.4656 0.422 -0.218 0.880 59 53 46 0 0
9091.5234 -13789.7812 74.4443 0.057 -0.227 0.972 116 118 121 0 0
9061.9961 -13781.9756 68.0234 0.432 0.771 -0.468 127 132 135 0 0
9070.2617 -13779.2930 70.1515 0.581 0.777 -0.242 76 62 48 0 0
9054.5674 -13774.6592 66.7716 0.015 0.011 1.000 67 56 47 0 0
9057.7549 -13772.6826 67.6562 -0.008 0.217 0.976 66 56 46 0 0
9052.6553 -13766.6299 66.8668 0.006 -0.145 0.989 72 61 50 0 0
9049.2422 -13765.2041 66.1602 0.063 -0.629 0.775 61 50 43 0 0
9049.8232 -13764.1279 66.3702 0.024 -0.862 0.506 57 50 44 0 0
9040.4004 -13755.3496 64.7482 0.111 -0.447 0.888 82 79 77 0 0
9041.6738 -13754.3340 65.1169 0.143 -0.631 0.762 83 80 78 0 0
9044.3398 -13753.4512 65.8045 0.019 -0.060 0.998 83 80 78 0 0
9043.9258 -13752.2783 65.7866 0.020 0.308 0.951 82 78 79 0 0
9043.9785 -13751.1494 65.8757 -0.027 0.125 0.992 87 85 85 0 0
9040.0508 -13746.2246 65.2857 -0.045 -0.039 0.998 65 66 68 0 0
9037.8496 -13741.4502 65.0919 -0.017 0.133 0.991 71 69 69 0 0
9035.5537 -13729.7920 65.3434 -0.022 -0.023 1.000 79 67 56 0 0
9035.3496 -13726.3379 65.5299 0.025 0.230 0.973 57 50 42 0 0
9033.4326 -13724.9814 65.1708 0.040 0.250 0.967 62 53 44 0 0
9028.0869 -13714.0342 64.6560 0.077 -0.419 0.905 71 63 52 0 0
9029.7520 -13713.0781 65.1130 0.341 -0.088 0.936 80 67 55 0 0
9029.7246 -13711.9248 65.1850 0.470 0.393 0.790 78 65 53 0 0
9029.2285 -13710.7148 65.1504 0.466 0.444 0.766 72 64 50 0 0
9029.3613 -13709.5791 65.2588 0.311 -0.255 0.915 67 61 49 0 0
9028.3594 -13708.3066 65.1093 0.424 0.144 0.894 64 59 45 0 0
9029.3535 -13707.2744 65.4135 0.345 -0.069 0.936 62 57 48 0 0
9029.6504 -13706.1582 65.5592 0.346 -0.208 0.915 57 54 45 0 0
9030.6455 -13702.8242 66.0200 0.341 -0.526 0.779 47 46 43 0 0
9028.7441 -13697.9736 65.9019 0.463 0.725 0.510 34 34 33 0 0
9026.9424 -13696.5908 65.5716 0.463 0.725 0.510 32 31 32 0 0
9023.6982 -13692.7041 65.0719 0.816 -0.084 0.571 45 41 43 0 0
9023.5840 -13691.5303 65.1247 0.867 -0.180 0.464 51 48 47 0 0
9023.5156 -13690.3623 65.1880 0.782 0.220 0.583 43 43 43 0 0
9022.5361 -13686.7539 65.2024 0.390 0.233 0.891 39 36 33 0 0
9022.0391 -13683.2051 65.3266 0.168 0.417 0.893 38 37 36 0 0
9026.3223 -13682.6221 66.3746 -0.113 -0.046 0.993 42 40 38 0 0
9043.7568 -13675.7920 70.9429 -0.065 0.185 0.981 37 35 36 0 0
9022.2002 -13662.2832 66.7859 0.253 0.724 0.642 38 36 35 0 0
9018.3877 -13660.5566 66.0056 0.221 0.530 0.818 39 36 37 0 0
9022.3086 -13659.9678 66.9686 0.460 -0.832 0.311 39 36 37 0 0
9023.3809 -13658.9609 67.2895 0.800 -0.596 -0.073 35 33 35 0 0
9023.8564 -13657.8662 67.4758 0.863 -0.449 -0.232 31 30 33 0 0
9024.9023 -13656.8574 67.7906 0.730 -0.675 -0.102 30 30 32 0 0
9017.2207 -13652.1943 66.2990 -0.106 -0.513 0.852 34 33 33 0 0
9013.3574 -13637.5088 66.3870 0.131 0.511 0.849 48 49 52 0 0
9012.5615 -13636.2051 66.2882 0.077 0.286 0.955 38 42 43 0 0
9008.7148 -13634.4062 65.5050 -0.010 0.281 0.960 32 35 37 0 0
9007.8887 -13633.0928 65.3996 -0.016 0.191 0.981 27 28 32 0 0
9006.3379 -13631.6592 65.1321 -0.036 0.095 0.995 33 31 31 0 0
9005.0254 -13630.2627 64.9179 -0.048 0.102 0.994 57 46 41 0 0
9003.7578 -13628.8711 64.7139 -0.048 0.102 0.994 53 44 41 0 0
8997.1240 -13626.5928 63.3070 0.020 0.369 0.929 46 40 36 0 0
9006.4951 -13626.9551 65.4885 -0.061 -0.643 0.763 45 42 40 0 0
9010.8174 -13626.4912 66.5377 -0.074 -0.513 0.855 36 36 36 0 0
9015.5400 -13626.0996 67.6760 -0.048 -0.862 0.505 42 37 38 0 0
9021.7969 -13620.1035 69.5563 0.087 -0.991 0.099 48 44 37 0 0
9020.7549 -13618.7500 69.4029 -0.071 -0.904 0.421 50 46 39 0 0
8991.0312 -13612.4492 62.8336 -0.044 -0.020 0.999 51 47 41 0 0
9002.6006 -13609.6914 65.7445 0.166 -0.173 0.971 56 52 43 0 0
9006.6123 -13606.8350 66.8830 0.158 -0.972 -0.176 37 36 39 0 0
9022.2373 -13587.2168 71.8941 0.686 0.570 0.451 44 50 57 0 0
9021.1670 -13585.8320 71.7362 0.665 0.638 0.387 42 49 53 0 0
9019.7764 -13584.3838 71.5070 0.581 0.762 0.285 46 50 57 0 0
9018.5254 -13582.9609 71.3093 0.606 0.612 0.508 46 51 56 0 0
9020.8730 -13581.0479 71.9920 0.920 -0.276 0.278 49 51 58 0 0
9021.1436 -13579.9170 72.1324 0.979 -0.104 0.173 50 50 53 0 0
9021.5264 -13577.6270 72.3783 0.567 0.810 -0.147 48 47 46 0 0
9015.9541 -13571.7871 71.4630 0.663 0.128 -0.737 36 32 34 0 0
9028.7861 -13567.2568 74.7917 0.103 -0.993 0.056 28 27 26 0 0
9021.9766 -13564.6924 73.3628 -0.092 0.251 0.964 30 30 30 0 0
9008.8936 -13559.6436 70.6257 -0.038 0.426 0.904 40 40 39 0 0
9000.3936 -13556.7031 68.8247 -0.017 0.518 0.855 49 51 55 0 0
8988.4102 -13553.0332 66.2528 -0.035 0.472 0.881 47 47 52 0 0
8985.3867 -13551.1982 65.6657 -0.067 0.415 0.907 43 43 48 0 0
8973.3018 -13547.4795 63.0734 -0.067 0.415 0.907 38 38 43 0 0
8986.2354 -13547.7393 66.1003 -0.243 -0.558 0.794 37 38 41 0 0
9042.8525 -13553.6973 79.0242 0.384 0.072 0.920 44 45 48 0 0
9043.1592 -13552.5879 79.1717 0.438 0.462 0.771 46 43 45 0 0
9041.1025 -13550.9746 78.7971 0.416 -0.727 0.547 43 35 36 0 0
9042.2725 -13550.0498 79.1356 0.416 -0.727 0.547 58 51 47 0 0
9043.8311 -13548.0361 79.6392 0.483 -0.650 0.587 51 48 43 0 0
9038.6807 -13545.7471 78.5822 0.161 0.345 0.925 49 48 46 0 0
9041.1191 -13545.0977 79.2003 0.110 -0.003 0.994 51 49 47 0 0
8928.1846 -13506.7598 55.2183 0.206 0.146 0.968 36 34 37 0 0
8927.4951 -13505.3457 55.1519 0.206 0.146 0.968 43 39 41 0 0
8927.9209 -13504.1846 55.3312 0.153 0.035 0.988 43 41 41 0 0
8926.8643 -13502.6865 55.1842 0.165 -0.091 0.982 42 39 38 0 0
8927.0791 -13501.4756 55.3170 0.158 -0.172 0.972 34 32 34 0 0
8927.5459 -13500.3223 55.5053 0.135 -0.111 0.985 28 27 31 0 0
8927.7168 -13499.1025 55.6282 0.137 -0.199 0.970 24 25 28 0 0
8917.1260 -13492.8770 53.5581 -0.015 0.316 0.949 53 54 55 0 0
8914.3174 -13490.9580 53.0271 -0.039 0.321 0.946 54 55 57 0 0
8961.9424 -13497.0439 63.8255 0.410 0.908 -0.087 37 38 38 0 0
8941.7764 -13481.0400 60.1652 0.827 0.158 -0.539 49 44 42 0 0
8926.2754 -13476.0439 56.8555 -0.133 -0.981 0.139 52 47 47 0 0
8957.0439 -13478.4961 63.9322 -0.103 -0.207 0.973 87 88 93 0 0
8959.0381 -13477.7402 64.4530 -0.116 -0.218 0.969 78 82 88 0 0
8960.1162 -13476.7607 64.7734 -0.139 -0.242 0.960 72 76 81 0 0
8964.1543 -13476.5127 65.7409 -0.120 -0.224 0.967 72 75 80 0 0
8961.9785 -13474.7344 65.3494 -0.165 -0.352 0.921 73 75 81 0 0
8963.3223 -13473.8252 65.7275 -0.165 -0.337 0.927 76 79 84 0 0
8971.5068 -13474.6172 67.6005 -0.137 -0.048 0.989 75 80 84 0 0
8971.2529 -13473.3174 67.6289 -0.137 -0.048 0.989 73 76 81 0 0
8964.1143 -13470.2979 66.1537 -0.150 -0.046 0.988 68 67 70 0 0
8968.6660 -13470.1963 67.2321 -0.194 -0.294 0.936 67 62 64 0 0
8972.0400 -13469.8047 68.0529 -0.194 -0.294 0.936 68 64 67 0 0
8969.2236 -13465.3809 67.6905 0.110 0.683 0.722 70 74 79 0 0
8961.6006 -13462.2051 66.1116 0.007 0.374 0.928 66 66 72 0 0
8950.3408 -13458.0928 63.7404 0.023 0.429 0.903 75 77 79 0 0
8941.8682 -13454.6758 61.9778 0.017 0.432 0.902 86 86 90 0 0
8935.7969 -13451.8613 60.7398 0.093 0.670 0.736 61 57 58 0 0
8906.2891 -13437.8799 54.7430 -0.184 -0.346 0.920 64 53 46 0 0
8915.5293 -13433.8799 57.1899 -0.195 -0.140 0.971 84 75 69 0 0
8919.7900 -13433.7227 58.2036 -0.205 -0.214 0.955 87 77 71 0 0
8932.5820 -13435.8291 61.0719 -0.264 -0.471 0.842 84 78 76 0 0
8938.5938 -13436.1543 62.4651 -0.210 -0.166 0.964 80 75 71 0 0
8890.7949 -13414.3809 52.6916 -0.164 0.047 0.985 75 71 70 0 0
8886.8369 -13412.0088 51.9211 -0.164 0.047 0.985 89 82 81 0 0
8881.7432 -13409.3223 50.9044 -0.159 0.057 0.986 81 77 75 0 0
8892.9082 -13411.0537 53.4152 -0.029 0.422 0.906 82 79 76 0 0
8895.5703 -13410.4805 54.0807 -0.054 0.337 0.940 75 69 67 0 0
8884.8906 -13406.2607 51.8534 -0.065 0.174 0.983 71 67 63 0 0
8879.2871 -13403.4170 50.7275 -0.070 -0.256 0.964 73 71 67 0 0
8884.3486 -13403.4990 51.9134 -0.040 -0.999 -0.020 98 96 94 0 0
8889.7324 -13402.3730 53.2572 0.114 -0.848 0.517 117 117 116 0 0
8887.3076 -13400.3975 52.8206 0.325 -0.029 0.945 120 118 118 0 0
8881.8682 -13397.5811 51.7316 0.268 0.439 0.858 121 119 120 0 0
8884.4258 -13396.9834 52.3741 0.284 0.592 0.754 119 118 119 0 0
8887.7012 -13396.5898 53.1720 -0.122 -0.102 0.987 118 117 118 0 0
8904.4561 -13399.9746 56.8865 -0.227 -0.299 0.927 110 112 114 0 0
8905.3574 -13398.9326 57.1694 -0.216 -0.252 0.943 95 97 99 0 0
8887.9092 -13390.1152 53.6608 -0.138 -0.006 0.990 62 61 64 0 0
8895.6885 -13340.0371 58.8942 -0.086 -0.289 0.953 122 119 119 0 0
8903.4727 -13337.2295 60.9173 -0.278 -0.615 0.738 123 122 123 0 0
8914.5391 -13339.4033 63.3748 -0.272 -0.645 0.714 122 121 122 0 0
8942.6074 -13325.1504 70.9508 0.184 -0.951 -0.247 50 45 42 0 0
8930.2314 -13319.8027 68.4006 0.237 0.741 0.628 54 46 44 0 0
8921.3369 -13315.5830 66.5934 0.213 0.701 0.681 56 46 44 0 0
8913.9775 -13311.8564 65.1140 0.196 0.659 0.726 56 47 44 0 0
8907.0293 -13308.2549 63.7230 0.196 0.659 0.726 54 46 43 0 0
8909.3271 -13307.7041 64.3013 0.018 0.301 0.954 54 46 42 0 0
8899.2939 -13301.7471 62.3440 0.485 0.214 0.848 53 46 41 0 0
9173.3926 -13958.9072 81.1719 0.108 -0.766 0.634 89 92 103 0 0
9175.6191 -13941.6768 82.8664 0.154 0.838 0.524 70 76 82 0 0
9171.7930 -13940.7305 82.0273 0.154 0.820 0.551 67 70 72 0 0
9162.5566 -13938.8457 79.9745 0.115 0.728 0.676 58 58 56 0 0
9165.3848 -13936.7637 80.7834 0.075 -0.425 0.902 59 57 57 0 0
9163.6963 -13935.7676 80.4524 0.045 -0.689 0.723 63 59 57 0 0
9166.8887 -13934.7051 81.2781 0.057 -0.455 0.889 87 79 77 0 0
9168.6895 -13932.6475 81.8429 0.047 -0.197 0.979 126 135 144 0 0
9169.2080 -13931.6230 82.0347 0.041 -0.212 0.976 98 114 140 0 0
9170.2031 -13930.5957 82.3395 -0.004 -0.004 1.000 144 144 153 0 0
9169.2920 -13929.5869 82.1927 -0.008 -0.136 0.991 152 151 156 0 0
9171.4629 -13928.5498 82.7757 0.004 -0.479 0.878 72 72 80 0 0
9173.0811 -13927.5186 83.2275 -0.006 -0.386 0.922 64 63 61 0 0
9146.6904 -13922.5742 77.3324 -0.099 -0.537 0.838 64 64 63 0 0
9145.1377 -13921.5479 77.0354 -0.063 -0.753 0.655 66 65 66 0 0
9153.3643 -13920.4805 79.0499 -0.063 -0.753 0.655 68 66 66 0 0
9161.1924 -13919.4248 80.9697 -0.062 -0.749 0.660 82 80 78 0 0
9165.5332 -13918.3877 82.0650 0.016 0.217 0.976 168 168 167 0 0
9164.3584 -13917.3672 81.8567 0.016 0.217 0.976 166 167 171 0 0
9163.1807 -13916.3457 81.6480 0.016 0.217 0.976 154 151 157 0 0
9159.6914 -13913.2695 81.0329 0.051 0.607 0.793 97 101 110 0 0
9158.4043 -13912.2402 80.7989 0.018 0.475 0.880 70 67 68 0 0
9155.9209 -13911.2070 80.2827 0.010 0.515 0.857 74 68 69 0 0
9144.2783 -13908.0703 77.7466 -0.108 0.039 0.993 70 68 67 0 0
9147.8213 -13907.0479 78.6526 -0.084 -0.413 0.907 76 75 75 0 0
9154.6465 -13906.0469 80.3319 -0.015 -0.066 0.998 123 125 128 0 0
9152.2471 -13905.0010 79.8364 0.027 0.124 0.992 121 125 128 0 0
9150.7061 -13903.9570 79.5434 0.271 0.298 0.915 120 123 127 0 0
9155.6709 -13902.9570 80.7832 -0.043 0.216 0.976 129 131 136 0 0
9140.4756 -13897.6377 77.5566 -0.064 0.151 0.986 141 143 147 0 0
9144.3428 -13896.6377 78.5374 0.030 0.179 0.983 136 139 145 0 0
9144.9336 -13895.6035 78.7470 0.133 0.573 0.809 137 138 141 0 0
9145.3506 -13894.5684 78.9158 0.157 0.601 0.784 148 147 151 0 0
9149.4209 -13892.5430 80.0140 0.748 -0.518 0.416 159 156 157 0 0
9150.0156 -13891.5137 80.2244 0.748 -0.518 0.416 154 154 155 0 0
9149.4082 -13890.4658 80.1518 0.789 0.614 -0.032 154 154 154 0 0
9132.7568 -13883.9180 76.6649 0.253 0.953 0.170 74 72 66 0 0
9108.5371 -13879.1943 71.2671 -0.002 0.350 0.937 77 73 67 0 0
9103.6885 -13878.0195 70.2020 0.013 0.605 0.796 78 76 73 0 0
9100.3867 -13876.8740 69.5003 -0.014 0.533 0.846 77 77 76 0 0
9098.0156 -13872.5205 69.2360 -0.119 -0.282 0.952 84 82 80 0 0
9099.8936 -13871.4941 69.7489 -0.118 -0.271 0.955 74 73 73 0 0
9100.4014 -13870.4326 69.9407 -0.113 -0.030 0.993 71 70 69 0 0
9100.3467 -13869.3574 70.0008 -0.122 -0.118 0.985 70 69 70 0 0
9094.8604 -13867.0508 68.8620 -0.066 0.103 0.992 70 68 69 0 0
9094.6221 -13865.9648 68.8793 -0.049 0.107 0.993 67 66 67 0 0
9096.8496 -13864.9531 69.4740 0.005 -0.631 0.776 69 67 67 0 0
9095.4434 -13863.8320 69.2178 0.084 -0.956 0.281 72 71 70 0 0
9104.9902 -13863.0527 71.5248 0.068 -0.956 0.284 67 66 66 0 0
9107.2949 -13862.0537 72.1366 -0.011 -0.658 0.753 69 69 67 0 0
9108.5645 -13861.0234 72.5062 0.021 -0.476 0.879 64 65 65 0 0
9104.9775 -13858.7598 71.8129 0.029 -0.999 -0.026 70 66 63 0 0
9120.0605 -13857.1445 75.4835 -0.064 -0.925 0.374 68 63 61 0 0
9085.2686 -13831.9570 68.9779 -0.061 0.437 0.898 69 56 47 0 0
9097.5781 -13824.9805 72.3572 -0.054 -0.931 0.361 67 58 47 0 0
9126.5166 -13824.4199 79.2274 0.466 -0.534 -0.706 68 59 50 0 0
9126.6807 -13823.3633 79.3378 0.468 -0.525 -0.711 70 60 50 0 0
9115.4297 -13815.2090 77.2346 0.411 0.535 0.738 76 66 58 0 0
9107.5586 -13813.6494 75.4821 0.025 -0.023 0.999 72 61 55 0 0
9117.0088 -13812.0820 77.8197 -0.034 -0.257 0.966 69 59 52 0 0
9107.1963 -13810.3828 75.6182 -0.100 -0.270 0.958 68 60 55 0 0
9102.2461 -13808.9834 74.5443 -0.073 0.413 0.908 60 52 49 0 0
9097.8994 -13807.6162 73.6110 -0.053 0.485 0.873 61 53 49 0 0
9091.4688 -13789.6953 73.3085 0.365 -0.890 -0.271 74 75 76 0 0
9069.2432 -13779.1260 68.7780 0.577 0.750 -0.322 68 55 46 0 0
9062.0059 -13775.1895 67.3364 -0.021 -0.210 0.978 69 59 48 0 0
9064.0547 -13774.2422 67.8844 -0.007 -0.009 1.000 72 61 50 0 0
9059.6631 -13766.0342 67.4042 -0.043 -0.139 0.989 69 55 46 0 0
9052.3691 -13764.2656 65.8022 0.048 -0.876 0.480 60 51 44 0 0
9061.8555 -13761.7471 68.2126 0.131 -0.943 0.307 64 60 57 0 0
9065.2568 -13760.9385 69.0705 0.151 -0.938 0.311 73 70 71 0 0
9071.7959 -13759.3076 70.7249 0.164 -0.893 0.420 78 74 71 0 0
9046.1748 -13753.5342 65.0677 0.052 -0.282 0.958 79 78 75 0 0
9048.7725 -13752.6494 65.7411 0.110 0.433 0.894 80 79 78 0 0
9047.0781 -13747.9590 65.6592 -0.033 0.016 0.999 88 87 85 0 0
9042.4131 -13738.4072 65.2057 -0.057 0.070 0.996 67 61 53 0 0
9042.6201 -13737.2910 65.3303 -0.035 0.009 0.999 69 62 52 0 0
9042.0654 -13730.4004 65.6667 -0.018 0.012 1.000 76 66 52 0 0
9041.6328 -13729.2139 65.6450 -0.018 0.012 1.000 74 65 53 0 0
9040.3643 -13726.7930 65.5098 0.025 0.230 0.973 57 50 43 0 0
9042.1133 -13722.4238 66.2190 -0.058 -0.188 0.980 72 64 50 0 0
9041.9570 -13721.2646 66.2608 -0.093 -0.690 0.718 73 64 50 0 0
9046.8398 -13720.6816 67.4531 -0.093 -0.690 0.718 71 63 48 0 0
9047.8164 -13719.6553 67.7533 -0.114 -0.754 0.646 70 63 45 0 0
9047.0557 -13718.4297 67.6568 -0.096 0.143 0.985 65 60 44 0 0
9045.5605 -13717.1172 67.3928 -0.110 -0.022 0.994 64 61 45 0 0
9044.4092 -13712.4189 67.4399 -0.130 -0.202 0.971 75 66 52 0 0
9028.5137 -13708.2236 63.9715 0.072 -0.570 0.819 75 66 52 0 0
9030.3213 -13707.2891 64.4618 0.072 -0.570 0.819 72 62 51 0 0
9031.7256 -13706.3086 64.8597 0.092 -0.521 0.848 70 60 47 0 0
9033.2559 -13705.3447 65.2865 0.092 -0.521 0.848 70 59 49 0 0
9035.0977 -13704.4209 65.7840 0.077 -0.699 0.711 67 59 48 0 0
9036.8311 -13703.4854 66.2566 0.081 -0.486 0.870 63 56 48 0 0
9034.4854 -13698.5947 66.0346 0.219 0.582 0.783 60 53 47 0 0
9032.1455 -13697.1475 65.5804 0.228 0.589 0.775 54 48 45 0 0
9029.2930 -13693.3203 65.1665 0.173 0.160 0.972 47 44 42 0 0
9028.5928 -13692.0742 65.0857 0.173 0.160 0.972 43 43 39 0 0
9028.4141 -13690.8955 65.1235 0.103 -0.160 0.982 41 41 40 0 0
9028.6182 -13689.7656 65.2483 0.087 -0.163 0.983 39 37 36 0 0
9039.2793 -13686.5654 67.9822 -0.037 -0.325 0.945 35 36 33 0 0
9039.9062 -13685.4990 68.2026 -0.039 -0.488 0.872 38 37 36 0 0
9033.8916 -13682.3828 66.9941 0.173 0.372 0.912 44 41 40 0 0
9030.1846 -13679.5654 66.3101 0.075 0.104 0.992 36 34 34 0 0
9053.8164 -13677.0977 72.0566 -0.073 0.188 0.979 46 45 48 0 0
9049.9746 -13675.4131 71.2640 -0.099 0.120 0.988 42 42 42 0 0
9031.3818 -13660.0381 67.9173 -0.075 0.360 0.930 34 33 35 0 0
9025.4980 -13652.1729 67.0615 -0.075 -0.460 0.885 38 36 36 0 0
9021.6592 -13650.4180 66.2743 -0.078 -0.083 0.994 36 34 36 0 0
9015.5830 -13635.3975 65.8585 -0.011 0.281 0.960 30 30 34 0 0
9013.1631 -13632.6514 65.4736 -0.036 0.095 0.995 45 43 42 0 0
9006.7949 -13629.2500 64.2008 0.017 0.346 0.938 48 42 37 0 0
9003.6436 -13627.5469 63.5722 0.063 0.387 0.920 53 46 37 0 0
9011.1191 -13627.6006 65.3337 -0.066 -0.609 0.791 45 41 36 0 0
9016.1328 -13627.2549 66.5407 -0.074 -0.513 0.855 46 43 38 0 0
9020.1104 -13620.8682 67.9131 0.628 -0.772 0.101 45 40 35 0 0
9023.0000 -13620.1875 68.6414 0.011 -0.873 0.487 47 41 33 0 0
9025.7285 -13619.4824 69.3335 -0.077 -0.879 0.471 50 45 34 0 0
9000.2070 -13613.9082 63.6862 -0.036 -0.138 0.990 51 47 36 0 0
9001.6895 -13612.9746 64.0994 0.012 0.057 0.998 53 49 38 0 0
8999.9189 -13610.2871 63.8637 0.007 0.047 0.999 53 49 40 0 0
9005.4629 -13610.0684 65.1875 0.166 -0.173 0.971 55 50 39 0 0
9006.4961 -13606.6895 65.6606 0.145 -0.977 -0.155 45 46 49 0 0
9046.9307 -13599.9287 75.6655 0.279 0.358 0.891 43 43 48 0 0
9030.8945 -13592.2588 72.3998 0.102 0.669 0.736 82 81 82 0 0
9019.9854 -13586.6592 70.2039 0.644 -0.418 0.641 88 92 94 0 0
9021.4717 -13585.7607 70.6159 0.821 -0.163 0.547 71 75 79 0 0
9020.4785 -13584.3887 70.4743 0.745 0.469 0.475 87 89 94 0 0
9021.7725 -13582.2734 70.9233 0.979 0.057 0.195 93 97 101 0 0
9021.5596 -13581.0498 70.9562 0.989 -0.112 0.101 95 99 101 0 0
9021.4688 -13579.8496 71.0160 0.931 -0.359 -0.066 95 98 98 0 0
9022.1592 -13568.1504 71.9726 0.448 0.881 -0.154 34 31 27 0 0
9024.8643 -13567.5117 72.6546 0.511 -0.859 0.005 31 30 26 0 0
9029.2578 -13567.2197 73.7118 0.085 -0.603 0.793 23 25 25 0 0
9032.7842 -13565.5781 74.6556 -0.063 0.231 0.971 27 28 25 0 0
9017.5947 -13558.9111 71.5217 -0.050 0.448 0.893 43 42 44 0 0
9044.7246 -13553.9590 78.2630 0.384 0.072 0.920 74 77 81 0 0
9046.9521 -13548.5723 79.1541 0.156 -0.409 0.899 83 85 84 0 0
9047.6318 -13547.5469 79.3840 0.146 -0.356 0.923 87 88 89 0 0
9045.0215 -13545.8076 78.8857 0.066 -0.010 0.998 79 80 81 0 0
9059.8457 -13544.3701 82.4833 0.546 0.112 -0.830 55 51 51 0 0
9048.6006 -13540.7236 80.0757 0.375 0.919 0.123 49 47 46 0 0
8938.3242 -13515.1396 55.7756 -0.039 -0.124 0.991 49 46 45 0 0
8938.9229 -13514.0225 55.9927 -0.062 -0.195 0.979 52 48 49 0 0
8941.8555 -13513.4268 56.7256 0.045 0.363 0.931 50 47 48 0 0
8937.6084 -13511.2305 55.8720 -0.013 0.061 0.998 46 42 42 0 0
8936.9443 -13509.8301 55.8101 -0.019 0.034 0.999 44 39 40 0 0
8930.5439 -13497.0820 55.1638 -0.015 0.316 0.949 42 42 42 0 0
8926.5459 -13494.8994 54.3678 -0.022 0.308 0.951 45 46 45 0 0
8963.5430 -13498.5039 62.8582 0.142 -0.884 -0.446 34 36 38 0 0
8963.4873 -13497.2549 62.9297 0.516 0.839 0.172 34 32 33 0 0
8958.5879 -13494.8652 61.9350 0.653 0.575 0.494 29 28 29 0 0
8963.5479 -13494.7949 63.1109 0.808 0.586 0.066 21 24 24 0 0
8965.3818 -13493.9912 63.5984 0.925 0.342 0.166 19 23 26 0 0
8941.7471 -13480.8779 58.9079 0.996 0.069 0.051 41 37 38 0 0
8945.3984 -13479.2529 59.8802 -0.075 -0.993 0.092 66 65 65 0 0
8954.0400 -13478.8535 61.9476 -0.074 -0.989 0.125 69 70 73 0 0
8958.8145 -13478.7725 63.0800 0.003 -0.949 0.315 71 75 82 0 0
8965.8975 -13479.2646 64.7191 -0.023 -0.949 0.313 72 77 84 0 0
8958.5732 -13476.2256 63.1959 0.239 0.699 0.674 67 71 76 0 0
8975.1611 -13479.0684 66.9194 -0.065 -0.985 0.161 71 72 77 0 0
8971.7236 -13476.9863 66.2490 -0.176 -0.831 0.527 70 71 74 0 0
8978.2676 -13477.3721 67.7679 -0.187 -0.814 0.550 74 76 80 0 0
8984.2539 -13477.6279 69.1639 -0.121 -0.413 0.902 66 65 69 0 0
8985.8027 -13476.7871 69.5866 -0.091 -0.279 0.956 63 59 61 0 0
8995.0967 -13476.6621 71.7893 -0.037 -0.497 0.867 53 49 50 0 0
8996.4258 -13475.7754 72.1633 0.078 -0.111 0.991 50 47 48 0 0
8991.3760 -13473.2832 71.1399 0.134 0.548 0.825 53 50 50 0 0
8986.7725 -13470.8965 70.2151 0.180 0.672 0.718 71 71 70 0 0
8975.2695 -13466.7549 67.7804 0.134 0.658 0.741 66 68 68 0 0
8971.8467 -13464.6494 67.1150 -0.046 0.287 0.957 68 66 66 0 0
8951.9971 -13457.1016 62.9405 0.020 0.572 0.820 68 68 71 0 0
8937.0098 -13452.0098 59.7477 0.020 0.572 0.820 60 60 60 0 0
8913.4658 -13434.4512 55.3800 -0.019 0.375 0.927 68 55 46 0 0
8947.1602 -13440.7783 62.9058 -0.265 -0.500 0.824 76 60 52 0 0
8950.3066 -13440.3525 63.6776 -0.264 -0.444 0.856 70 57 49 0 0
8950.1934 -13439.0654 63.7382 -0.215 -0.168 0.962 71 61 53 0 0
8941.4111 -13430.4150 62.2516 -0.054 0.399 0.916 70 62 56 0 0
8928.3652 -13425.6348 59.4958 -0.153 0.071 0.986 68 60 57 0 0
8924.2207 -13423.2402 58.6797 -0.153 0.071 0.986 72 64 61 0 0
8886.6865 -13403.9668 51.1254 -0.098 -0.331 0.938 71 65 59 0 0
8886.2568 -13402.5430 51.1208 -0.034 -0.999 0.019 80 71 66 0 0
8889.2266 -13402.0576 51.8547 -0.146 -0.484 0.863 90 84 80 0 0
8891.1104 -13401.2754 52.3525 -0.087 -0.320 0.943 103 101 100 0 0
8884.7607 -13398.2080 51.0614 0.296 0.426 0.855 112 110 108 0 0
8911.2246 -13402.9844 56.9854 -0.244 -0.433 0.868 113 113 113 0 0
8936.9512 -13406.3555 62.8305 -0.241 -0.352 0.905 81 80 81 0 0
8948.3994 -13404.5186 65.6581 -0.209 -0.801 0.560 85 84 85 0 0
8901.5244 -13348.2021 58.4114 0.033 0.353 0.935 52 45 42 0 0
8898.6221 -13346.0000 57.8754 0.726 0.330 0.604 53 46 43 0 0
8900.5244 -13345.2783 58.3735 0.426 0.414 0.804 60 53 50 0 0
8917.5547 -13341.4619 62.6530 -0.277 -0.619 0.735 112 109 108 0 0
8926.7578 -13343.0605 64.7174 -0.272 -0.645 0.714 103 98 95 0 0
8934.2832 -13344.1426 66.4206 -0.245 -0.755 0.609 94 88 83 0 0
8962.5967 -13346.7393 72.9291 0.088 -0.825 0.558 61 54 48 0 0
8967.4678 -13347.0293 74.0596 0.070 -0.932 0.355 58 51 48 0 0
8970.6826 -13346.7949 74.8345 -0.032 -0.850 0.527 58 50 46 0 0
8923.6650 -13323.9453 65.2839 0.234 -0.959 -0.163 55 47 44 0 0
8932.9688 -13321.8008 67.6259 0.328 -0.923 -0.201 53 44 40 0 0
8929.9893 -13319.5303 67.0765 0.314 0.799 0.512 53 46 43 0 0
9181.1924 -13960.6523 81.8437 0.106 0.313 0.944 91 92 99 0 0
9177.7646 -13959.7471 81.0935 -0.056 -0.502 0.863 67 70 75 0 0
9189.2031 -13956.4150 84.0274 -0.045 -0.160 0.986 25 27 35 0 0
9188.8857 -13955.4238 84.0194 -0.046 -0.193 0.980 27 24 31 0 0
9190.6748 -13947.3760 84.9882 0.095 -0.659 0.746 115 115 118 0 0
9186.1650 -13945.4648 84.0497 0.258 0.448 0.856 124 123 130 0 0
9170.5830 -13937.6572 80.8891 0.315 -0.052 0.948 48 46 46 0 0
9168.2471 -13936.6748 80.4027 0.066 -0.423 0.904 60 53 49 0 0
9167.3311 -13935.6699 80.2539 0.067 -0.723 0.687 65 56 50 0 0
9170.4531 -13934.6113 81.0648 0.067 -0.723 0.687 97 89 83 0 0
9173.4385 -13931.5283 81.9803 0.009 -0.119 0.993 148 148 148 0 0
9173.3818 -13929.4980 82.1045 0.008 0.149 0.989 142 141 147 0 0
9171.4102 -13928.5010 81.7053 0.092 0.736 0.671 66 64 67 0 0
9169.2646 -13927.5020 81.2650 0.088 0.755 0.650 61 57 46 0 0
9165.9922 -13926.5088 80.5574 0.088 0.755 0.650 60 56 45 0 0
9162.6934 -13925.5107 79.8438 0.167 0.881 0.443 63 57 47 0 0
9156.0225 -13923.5029 78.4005 -0.037 -0.644 0.764 62 56 48 0 0
9155.0723 -13922.4805 78.2448 -0.065 -0.615 0.786 61 58 51 0 0
9159.9609 -13921.4287 79.4735 -0.065 -0.615 0.786 61 59 56 0 0
9161.4014 -13920.3975 79.8844 -0.062 -0.749 0.660 64 60 56 0 0
9170.1963 -13919.3438 82.0381 -0.019 0.179 0.984 106 101 99 0 0
9169.5732 -13918.3262 81.9595 0.019 0.245 0.969 169 168 169 0 0
9168.3818 -13917.3086 81.7464 0.026 0.223 0.975 166 166 170 0 0
9167.2344 -13916.2881 81.5438 0.026 0.223 0.975 160 161 163 0 0
9164.6553 -13914.2441 81.0715 0.044 0.306 0.951 153 156 161 0 0
9162.7158 -13913.2188 80.6817 0.080 0.605 0.792 79 83 93 0 0
9162.1230 -13912.1924 80.6110 0.062 0.130 0.989 59 60 60 0 0
9161.4355 -13911.1641 80.5178 0.053 0.136 0.989 63 61 60 0 0
9152.7031 -13908.0488 78.6613 -0.108 0.039 0.993 63 61 60 0 0
9156.0752 -13907.0312 79.5287 -0.094 -0.331 0.939 73 73 72 0 0
9161.9600 -13906.0303 80.9897 0.020 0.124 0.992 117 120 125 0 0
9160.5518 -13904.9951 80.7264 0.038 0.316 0.948 113 118 123 0 0
9156.9131 -13903.9424 79.9362 0.180 0.313 0.933 83 82 88 0 0
9158.2910 -13902.9209 80.3316 -0.000 0.302 0.953 118 121 125 0 0
9159.1504 -13901.8975 80.6044 0.032 -0.112 0.993 117 121 126 0 0
9158.0176 -13900.8574 80.4065 -0.030 -0.039 0.999 117 120 125 0 0
9149.8701 -13896.6416 78.7630 0.012 0.317 0.948 114 119 127 0 0
9149.2568 -13895.5967 78.6887 0.098 0.677 0.729 102 108 111 0 0
9146.2930 -13894.5225 78.0597 0.134 0.716 0.686 87 89 93 0 0
9144.1641 -13893.4551 77.6278 0.451 0.702 0.552 115 115 120 0 0
9143.7373 -13892.4072 77.5977 0.440 -0.792 0.423 76 78 86 0 0
9145.1592 -13891.3857 78.0037 0.758 -0.651 0.050 65 67 71 0 0
9145.6582 -13890.3525 78.1917 0.847 -0.531 0.029 71 73 73 0 0
9136.7773 -13883.9336 76.5238 0.478 0.874 -0.089 109 109 108 0 0
9114.3438 -13879.2568 71.5291 -0.029 0.263 0.964 77 74 71 0 0
9109.3525 -13878.0830 70.4267 -0.023 0.495 0.868 73 70 69 0 0
9109.8984 -13877.0283 70.6273 -0.097 0.199 0.975 73 72 72 0 0
9106.5068 -13874.8125 69.9744 -0.098 0.076 0.992 71 71 70 0 0
9102.9141 -13872.5811 69.2750 -0.104 -0.275 0.956 70 70 67 0 0
9105.9473 -13871.5879 70.0605 -0.098 -0.344 0.934 70 69 66 0 0
9107.8408 -13870.5684 70.5778 -0.092 -0.311 0.946 70 68 67 0 0
9102.6484 -13869.3564 69.4304 -0.060 0.166 0.984 70 67 66 0 0
9098.7422 -13867.0977 68.6586 -0.030 0.238 0.971 69 67 67 0 0
9101.0566 -13866.0889 69.2750 0.008 0.176 0.984 68 68 68 0 0
9103.5703 -13865.0898 69.9377 0.076 -0.042 0.996 71 69 69 0 0
9095.3359 -13863.7637 68.0780 -0.006 -0.736 0.677 69 68 68 0 0
9103.5039 -13862.9404 70.0676 0.042 -0.930 0.365 65 65 65 0 0
9110.9727 -13862.1055 71.8924 0.097 -0.909 0.406 69 68 68 0 0
9110.8643 -13861.0332 71.9394 0.020 -0.577 0.816 71 69 68 0 0
9113.2832 -13858.9756 72.6516 0.065 -0.992 0.106 67 66 64 0 0
9094.6416 -13832.3506 70.0411 -0.131 0.064 0.989 69 58 47 0 0
9125.9941 -13817.9141 78.4423 0.548 -0.123 -0.828 76 63 56 0 0
9115.1699 -13816.1934 75.9959 0.276 0.443 0.853 75 64 54 0 0
9115.2910 -13815.1250 76.0969 0.338 0.316 0.886 70 59 48 0 0
9112.0039 -13813.8467 75.4052 0.094 0.077 0.993 72 60 50 0 0
9115.6172 -13812.9941 76.3186 0.096 -0.398 0.912 73 61 56 0 0
9114.2881 -13811.8350 76.0824 0.333 -0.048 0.942 69 61 56 0 0
9088.4502 -13788.2871 71.5597 0.925 -0.214 -0.314 34 35 36 0 0
9068.8682 -13772.3311 68.0040 -0.003 0.233 0.973 71 59 48 0 0
9067.1826 -13771.0723 67.6902 0.008 0.248 0.969 68 57 48 0 0
9065.1191 -13767.5449 67.4405 -0.047 -0.099 0.994 71 63 49 0 0
9065.4590 -13766.4570 67.5945 -0.043 -0.139 0.989 69 58 47 0 0
9064.1152 -13765.2207 67.3603 -0.005 -0.403 0.915 60 53 44 0 0
9060.6855 -13762.6738 66.7206 0.293 -0.953 -0.078 59 51 42 0 0
9064.2744 -13761.8779 67.6242 0.208 -0.974 -0.085 56 52 45 0 0
9075.5439 -13759.5664 70.4491 0.222 -0.942 0.251 80 76 75 0 0
9082.4766 -13759.1025 72.1220 0.035 -0.911 0.412 78 76 74 0 0
9055.2822 -13753.1807 66.0844 -0.008 -0.005 1.000 82 81 78 0 0
9049.5146 -13740.1807 65.5992 -0.035 0.009 0.999 69 59 50 0 0
9048.5674 -13731.0078 65.9962 0.021 0.183 0.983 76 65 52 0 0
9048.5293 -13729.8682 66.0643 0.061 0.346 0.936 72 62 52 0 0
9046.6729 -13728.5293 65.7156 0.057 0.354 0.934 52 47 41 0 0
9044.9600 -13727.2031 65.3998 0.058 0.332 0.942 71 62 47 0 0
9044.2705 -13723.7090 65.4732 -0.003 -0.004 1.000 76 66 54 0 0
9047.8877 -13722.9775 66.3791 -0.034 -0.258 0.965 72 64 52 0 0
9054.1680 -13720.2871 68.0484 -0.108 -0.797 0.595 72 64 49 0 0
9055.1777 -13718.1357 68.4331 -0.135 -0.114 0.984 66 63 49 0 0
9054.9014 -13712.4326 68.7540 -0.131 0.002 0.991 69 60 46 0 0
9054.1904 -13711.2119 68.6683 -0.125 0.032 0.992 71 61 50 0 0
9053.0439 -13709.9375 68.4833 -0.125 0.032 0.992 71 61 51 0 0
9056.3730 -13709.2061 69.3211 -0.117 0.036 0.992 75 64 51 0 0
9038.7617 -13697.8838 65.9181 0.101 0.448 0.888 67 56 50 0 0
9032.5664 -13692.4844 64.8169 0.038 0.051 0.998 54 50 47 0 0
9032.0352 -13691.2617 64.7739 0.038 0.051 0.998 51 48 45 0 0
9033.2441 -13690.2666 65.1275 0.014 -0.060 0.998 53 49 46 0 0
9034.8252 -13689.3213 65.5658 -0.017 -0.257 0.966 47 45 42 0 0
9036.1426 -13688.3438 65.9441 -0.023 -0.089 0.996 44 44 39 0 0
9041.4082 -13686.7441 67.2992 -0.029 -0.516 0.856 41 41 37 0 0
9045.8330 -13680.4570 68.7725 -0.119 -0.423 0.898 39 36 37 0 0
9049.4355 -13679.8096 69.6695 -0.159 -0.468 0.869 40 37 36 0 0
9053.9570 -13679.2939 70.7749 -0.159 -0.468 0.869 42 39 38 0 0
9067.2148 -13680.0068 73.8657 -0.024 0.291 0.956 41 39 42 0 0
9064.6543 -13678.5137 73.3606 -0.017 0.367 0.930 38 37 41 0 0
9061.5371 -13676.9375 72.7292 -0.044 0.221 0.974 40 39 41 0 0
9057.8047 -13675.2705 71.9584 -0.023 0.338 0.941 36 36 37 0 0
9054.2715 -13673.6260 71.2333 -0.023 0.355 0.935 35 35 35 0 0
9050.8848 -13671.9971 70.5417 -0.032 0.238 0.971 34 33 32 0 0
9069.0781 -13667.8018 75.1335 -0.037 0.537 0.843 38 37 36 0 0
9059.6514 -13665.2715 73.0730 -0.032 0.560 0.828 43 40 39 0 0
9039.2783 -13659.9443 68.6100 -0.054 0.428 0.902 41 39 40 0 0
9032.9443 -13657.8379 67.2530 -0.056 0.419 0.906 40 37 35 0 0
9027.4160 -13655.8447 66.0792 -0.061 -0.037 0.997 49 46 40 0 0
9031.3457 -13652.9521 67.2054 -0.068 -0.648 0.758 34 32 33 0 0
9029.0918 -13650.2803 66.8527 -0.072 -0.056 0.996 29 30 31 0 0
9028.8701 -13649.0820 66.8814 -0.086 -0.158 0.984 32 32 33 0 0
9029.1816 -13647.9658 67.0308 -0.075 -0.117 0.990 38 36 34 0 0
9029.5312 -13646.8555 67.1887 -0.075 -0.117 0.990 43 38 38 0 0
9030.2314 -13645.8018 67.4260 -0.081 -0.159 0.984 41 39 38 0 0
9031.1123 -13643.6123 67.7829 -0.079 -0.162 0.984 29 29 33 0 0
9026.4160 -13641.7012 66.8002 -0.017 -0.237 0.971 26 29 33 0 0
9022.8477 -13634.1113 66.4694 -0.086 0.028 0.996 40 37 34 0 0
9021.6602 -13632.7451 66.2807 -0.090 0.058 0.994 44 41 36 0 0
9034.1650 -13628.9707 69.4972 0.636 0.698 0.328 47 43 37 0 0
9031.1084 -13627.2930 68.8872 0.758 0.516 0.399 52 48 46 0 0
9035.1064 -13623.3037 70.1040 0.372 -0.828 0.420 57 50 40 0 0
9026.1436 -13620.6035 68.1646 0.022 -0.901 0.433 55 48 36 0 0
9003.5996 -13613.1816 63.3297 -0.088 -0.066 0.994 52 49 40 0 0
9004.9072 -13612.2207 63.7043 -0.101 -0.186 0.977 51 46 38 0 0
9008.3174 -13610.4443 64.6321 0.166 -0.173 0.971 53 49 38 0 0
9010.0088 -13606.0020 65.3335 0.138 -0.974 -0.181 53 49 47 0 0
9039.9814 -13605.5117 72.4631 0.011 -0.661 0.750 46 44 43 0 0
9052.0361 -13603.0674 75.4829 -0.057 -0.702 0.710 42 42 47 0 0
9052.4727 -13601.9902 75.6593 0.004 -0.208 0.978 44 43 49 0 0
9048.9492 -13600.1777 74.9478 0.296 0.229 0.927 44 44 49 0 0
9015.9043 -13585.7529 68.1009 0.923 -0.206 0.326 97 99 104 0 0
9021.9844 -13582.1846 69.7821 0.572 0.058 0.818 106 109 113 0 0
9006.7930 -13568.5068 67.1115 -0.138 -0.633 0.762 43 39 39 0 0
9014.2383 -13567.6113 68.9350 0.083 -0.073 0.994 34 31 29 0 0
9027.5771 -13569.1074 71.9919 0.502 -0.230 0.833 28 28 25 0 0
9025.9092 -13567.5898 71.6998 0.258 -0.770 0.584 31 30 26 0 0
9032.3057 -13567.7041 73.2066 0.330 -0.654 0.681 28 29 28 0 0
9010.0107 -13553.6260 68.8814 -0.174 -0.871 0.460 88 90 95 0 0
9016.7646 -13553.8418 70.4659 -0.170 -0.849 0.500 108 110 117 0 0
9029.1455 -13555.2461 73.3021 -0.204 -0.726 0.657 58 64 68 0 0
9050.8467 -13542.2520 79.3203 0.700 0.690 0.184 64 60 62 0 0
8939.8076 -13507.8223 55.3617 0.009 0.148 0.989 55 53 49 0 0
8941.3682 -13506.9258 55.7921 -0.017 0.065 0.998 56 53 45 0 0
8940.5850 -13505.4980 55.7033 -0.042 -0.012 0.999 57 54 51 0 0
8941.9053 -13502.0488 56.2496 -0.073 -0.200 0.977 50 47 46 0 0
8942.7900 -13501.0010 56.5299 -0.073 -0.200 0.977 50 48 47 0 0
8936.3477 -13498.2666 55.1897 -0.013 0.246 0.969 49 48 47 0 0
8933.5918 -13496.3750 54.6654 -0.017 0.250 0.968 45 45 45 0 0
8930.7363 -13494.4561 54.1192 -0.016 0.238 0.971 53 48 47 0 0
8941.9131 -13494.5449 56.7595 -0.074 -0.960 0.269 35 34 33 0 0
8941.6270 -13493.2266 56.7812 -0.133 -0.913 0.385 33 33 34 0 0
8960.5469 -13496.4131 61.0450 0.922 -0.213 0.323 29 26 27 0 0
8959.3711 -13494.8975 60.8691 0.720 -0.531 0.448 25 24 25 0 0
8960.4980 -13493.9229 61.2019 0.743 -0.643 0.184 20 23 24 0 0
8962.3857 -13493.1299 61.7027 0.282 -0.908 0.311 21 24 27 0 0
8963.8564 -13492.2402 62.1111 0.988 -0.145 0.045 21 24 28 0 0
8943.5156 -13478.6406 58.2162 -0.134 -0.972 0.193 76 75 70 0 0
8951.7500 -13479.3877 60.1152 -0.132 -0.972 0.194 58 60 61 0 0
8954.9697 -13478.9238 60.9090 -0.075 -0.969 0.234 66 67 72 0 0
8959.6738 -13478.8271 62.0294 0.046 -0.912 0.408 52 56 61 0 0
8966.6348 -13479.2900 63.6462 -0.010 -0.955 0.298 52 53 61 0 0
8962.9502 -13477.1455 62.9191 0.420 0.804 0.422 57 58 65 0 0
8976.8105 -13479.3203 66.0533 -0.051 -0.999 -0.000 49 50 57 0 0
8981.3604 -13479.2129 67.1379 -0.072 -0.997 0.041 59 61 66 0 0
8988.3818 -13479.7236 68.7657 -0.083 -0.992 0.098 54 55 58 0 0
8999.2520 -13477.5488 71.4868 0.058 -0.407 0.911 46 46 47 0 0
9001.0303 -13476.7783 71.9601 0.201 0.258 0.945 45 42 44 0 0
8995.9092 -13474.2705 70.9174 0.128 0.529 0.839 44 41 43 0 0
8991.9170 -13472.0400 70.1232 0.128 0.529 0.839 49 48 48 0 0
8980.0527 -13466.5762 67.6842 0.009 0.373 0.928 47 46 45 0 0
8949.3770 -13443.7129 61.9695 -0.256 -0.492 0.832 59 46 41 0 0
8959.4971 -13445.1211 64.2705 -0.264 -0.509 0.820 60 48 39 0 0
8965.6113 -13445.4844 65.6934 -0.277 -0.573 0.772 46 40 32 0 0
8979.8379 -13448.0039 68.8912 -0.262 -0.423 0.868 46 39 32 0 0
8956.4443 -13440.5586 63.8566 -0.209 -0.122 0.970 56 46 39 0 0
8968.2773 -13437.4727 66.8674 -0.045 0.416 0.908 74 59 52 0 0
8953.8711 -13432.3418 63.8039 -0.045 0.416 0.908 74 59 53 0 0
8952.4502 -13430.7012 63.5786 -0.093 0.242 0.966 72 58 51 0 0
8945.1514 -13427.4658 62.0696 -0.114 0.176 0.978 70 57 48 0 0
8939.8408 -13424.7598 60.9954 -0.118 0.160 0.980 67 55 48 0 0
8941.5264 -13423.9512 61.4493 -0.031 0.390 0.920 66 54 49 0 0
8932.4131 -13420.1963 59.5459 -0.031 0.390 0.920 61 51 43 0 0
8921.5586 -13415.9512 57.2635 -0.124 0.121 0.985 64 51 43 0 0
8898.7783 -13407.1191 52.4679 -0.100 -0.011 0.995 60 49 45 0 0
8917.9521 -13411.1133 56.7372 -0.180 -0.064 0.982 58 48 42 0 0
8902.6172 -13405.5869 53.4807 -0.184 -0.162 0.970 61 53 48 0 0
8927.9541 -13411.3184 59.0915 -0.172 0.040 0.984 63 57 51 0 0
9001.2031 -13424.2744 75.5572 -0.091 -0.787 0.611 63 62 60 0 0
8986.4736 -13413.9346 72.7699 0.206 -0.870 -0.449 59 59 62 0 0
8906.3936 -13352.1201 57.9962 0.216 0.127 0.968 70 62 55 0 0
8911.5869 -13351.1113 59.2941 0.021 0.350 0.936 63 52 45 0 0
8908.6572 -13348.9072 58.7497 0.010 0.342 0.940 69 60 53 0 0
8907.3291 -13341.9766 58.9047 -0.072 -0.728 0.681 71 62 57 0 0
8937.7109 -13346.3213 65.8039 -0.268 -0.649 0.712 64 55 51 0 0
8941.6064 -13346.2666 66.7300 -0.244 -0.736 0.632 62 52 47 0 0
8955.5957 -13348.1367 69.9155 -0.226 -0.753 0.618 64 50 45 0 0
9003.3066 -13350.8662 81.0272 -0.130 -0.008 0.992 54 48 43 0 0
8918.8779 -13307.8662 63.9495 0.733 0.404 0.548 50 43 41 0 0
8994.2305 -13232.0850 86.9234 0.307 0.781 0.544 34 32 34 0 0
9180.0977 -13961.6475 80.4647 -0.080 -0.491 0.868 38 42 44 0 0
9182.8574 -13960.5605 81.1936 -0.087 -0.437 0.895 36 35 36 0 0
9186.6016 -13959.4482 82.1577 -0.077 -0.528 0.845 35 33 33 0 0
9192.9189 -13957.2695 83.8050 -0.084 -0.406 0.910 40 36 34 0 0
9192.2773 -13956.2891 83.7190 -0.082 0.082 0.993 45 40 37 0 0
9185.4248 -13955.4727 82.1473 0.037 -0.077 0.996 46 41 37 0 0
9182.2646 -13954.5508 81.4592 0.176 -0.752 0.636 46 41 38 0 0
9182.1133 -13952.5439 81.5590 0.186 0.001 0.982 55 52 48 0 0
9191.0967 -13947.3223 84.0452 0.104 0.385 0.917 113 115 116 0 0
9189.2510 -13946.3604 83.6721 0.131 0.455 0.881 121 125 132 0 0
9184.1211 -13943.4492 82.6509 0.589 0.808 -0.007 117 124 129 0 0
9180.1553 -13942.5146 81.7724 0.618 0.557 -0.554 83 89 99 0 0
9171.9287 -13937.5908 80.1519 0.229 -0.361 0.904 48 44 40 0 0
9171.7939 -13936.5771 80.1885 0.066 -0.423 0.904 55 47 40 0 0
9171.6846 -13935.5635 80.2311 0.080 -0.657 0.750 58 51 44 0 0
9173.9707 -13934.5176 80.8446 0.081 -0.696 0.713 98 89 85 0 0
9177.5117 -13933.4600 81.7571 0.052 -0.806 0.589 138 138 141 0 0
9177.5361 -13932.4473 81.8312 0.009 -0.119 0.993 137 136 139 0 0
9177.2822 -13931.4375 81.8392 0.032 -0.032 0.999 137 136 139 0 0
9178.2207 -13930.4150 82.1314 0.011 0.099 0.995 142 142 144 0 0
9176.9541 -13929.4150 81.8981 0.028 0.349 0.937 118 119 123 0 0
9174.0186 -13928.4277 81.2678 0.092 0.736 0.671 64 59 56 0 0
9172.2773 -13927.4268 80.9221 0.081 0.706 0.703 63 57 44 0 0
9164.1611 -13924.4277 79.1979 0.107 0.564 0.819 57 53 44 0 0
9162.0420 -13923.4180 78.7630 -0.037 -0.644 0.764 60 54 42 0 0
9162.4316 -13922.3916 78.9249 -0.065 -0.615 0.786 60 55 43 0 0
9167.2773 -13921.3447 80.1461 -0.065 -0.615 0.786 59 53 43 0 0
9169.4648 -13920.3154 80.7353 -0.062 -0.749 0.660 61 52 42 0 0
9175.7715 -13919.2754 82.3032 -0.021 0.163 0.986 136 130 125 0 0
9170.8418 -13916.2324 81.3385 0.038 0.262 0.964 171 171 172 0 0
9167.6973 -13914.1914 80.7296 0.050 0.291 0.955 126 130 139 0 0
9165.4111 -13913.1680 80.2562 0.061 0.609 0.791 73 74 78 0 0
9165.5977 -13912.1436 80.3697 0.039 0.004 0.999 59 56 50 0 0
9165.0957 -13911.1182 80.3198 0.032 -0.133 0.991 62 56 51 0 0
9157.9590 -13908.0156 78.8351 -0.062 -0.148 0.987 59 55 52 0 0
9160.2129 -13906.9961 79.4391 -0.016 0.155 0.988 68 64 61 0 0
9163.3164 -13905.9834 80.2446 0.024 0.276 0.961 103 105 107 0 0
