ply
format ascii 1.0
element vertex 737
property float x
property float y
property float z
property uchar diffuse_red
property uchar diffuse_green
property uchar diffuse_blue
end_header
8961.261979255733 -13349.747719484789 69.88547806870362 60 47 42
8962.485184059846 -13348.867770168175 70.2354339437613 57 45 39
9022.400906050809 -13360.554900179966 83.67179930572985 55 47 43
9024.836637366745 -13357.663261195807 84.44571458829856 55 52 52
9030.035707482879 -13356.904452600036 85.73153187198979 53 44 40
9029.765164911325 -13355.593457682382 85.75595451928763 56 45 40
9039.719658037284 -13357.62656697859 87.98211285423305 53 43 38
9035.105405256701 -13354.897621363041 87.07103335241557 46 37 35
9041.437150104271 -13355.75805518548 88.5162913619159 52 44 40
9031.620081615296 -13351.310178411213 86.48607354052308 50 42 37
9031.783775939752 -13350.14139068686 86.60398668357344 52 43 39
8911.849448633942 -13294.844010444926 61.865771880179 55 45 42
8917.020041133572 -13295.286375118238 63.0635924951347 53 43 41
9010.275174555572 -13241.91640103682 88.81605477418594 47 44 49
9013.025366768574 -13241.727546938137 89.48184956670346 83 81 81
9186.714442149429 -13968.407877325712 80.53092485527047 40 38 36
9188.137239345942 -13961.362059626736 81.34551878293827 51 50 48
9191.358629580453 -13960.266217816925 82.18660825451252 47 42 38
9200.772871202767 -13957.009369605454 84.64829107041187 75 72 71
9196.441447207842 -13956.133882489092 83.67599689383367 74 74 73
9190.419304133477 -13955.297348576672 82.2984721252582 53 51 44
9184.633604402949 -13954.446754190181 80.9781995819259 54 47 41
9187.591548762071 -13953.368461080012 81.75537133365218 52 46 39
9186.498284568665 -13952.393129721375 81.56090180532145 79 73 67
9194.872818609323 -13947.197664605099 83.90591725226149 120 122 122
9193.921330300142 -13946.218709955077 83.74545258549351 126 130 134
9192.028903092638 -13945.257154596819 83.35975319717586 129 131 137
9184.260421102494 -13943.400665530673 81.63525975382332 124 125 129
9180.53048672997 -13942.46181274783 80.81047344105761 120 124 129
9180.149101451516 -13941.459617320043 80.78733318251966 94 94 100
9177.345525461005 -13940.497358218498 80.18471527048561 94 93 98
9172.744704366929 -13939.560259337768 79.15243182112316 54 50 49
9170.276111130845 -13938.584009882507 78.63052596035652 64 55 48
9177.059561853815 -13937.467146128125 80.32124574598608 69 58 50
9176.152693703158 -13936.467948553453 80.17277316379302 85 80 72
9179.424894094687 -13935.410806168386 81.02334842631531 73 70 64
9180.840420250694 -13934.381636666682 81.42991673708295 93 90 86
9182.226627484064 -13933.354462893823 81.82936875162824 120 124 127
9180.900496872862 -13932.360339920373 81.58071719536132 121 123 126
9179.857221187136 -13931.361207007303 81.39975839066861 120 122 126
9179.086787559612 -13930.357716361648 81.28406399489917 116 119 122
9176.493330832101 -13929.370628319899 80.73315709923676 97 97 100
9172.935132783312 -13928.388670273067 79.95217608804893 80 75 73
9173.453758795235 -13927.367835479556 80.14460846103428 69 64 52
9172.594535698203 -13926.358096856095 80.0081931109045 63 57 47
9167.736761348577 -13924.354813395355 78.98672068735411 59 54 46
9166.730539216429 -13923.339950971114 78.81564739659913 65 58 45
9169.725821612035 -13922.303120592882 79.59891030764364 71 60 45
9174.528304733332 -13921.261909219254 80.81280623838428 71 60 48
9179.026082268882 -13920.227896219867 81.95365847789488 75 60 50
9180.407003456634 -13919.209396883054 82.3512659899352 139 132 131
9177.820740211882 -13918.202483434738 81.80341080904078 142 143 147
9175.958917063657 -13917.190660783139 81.42839343651559 141 140 145
9174.812736402006 -13916.17535013472 81.22402298193364 142 142 146
9173.759803136212 -13915.158299913619 81.04197440522346 145 146 151
9171.422463932291 -13914.13958105405 80.55419111768786 106 110 117
9168.328609734699 -13913.117074405298 79.88651952455696 59 60 61
9169.10935104552 -13912.095694416259 80.14140455744787 57 51 45
9168.867175556434 -13911.073054481398 80.15279402129568 59 53 46
9164.696987789725 -13910.039373053281 79.22957659684376 56 52 42
9170.20852365284 -13909.03231486493 80.61000842545167 97 93 79
9170.021024286689 -13908.009539451328 80.63442671425912 133 130 122
9167.900327720245 -13906.977367540738 80.1991396178295 129 128 122
9166.349036569749 -13905.94524484577 79.89943807669333 131 128 124
9164.125631121984 -13904.90691600716 79.44010933673795 132 127 120
9161.26606452777 -13903.861304487016 78.82978738918385 131 130 126
9163.483506229988 -13902.848503844752 79.42620537077988 124 121 123
9164.129589689095 -13901.825998689912 79.64910116916333 126 123 118
9164.94791059304 -13900.80560605601 79.91286811635236 123 119 119
9165.47544650766 -13899.78340781519 80.10751421894004 90 90 91
9161.109211356117 -13898.713537166332 79.14005707924571 84 85 86
9158.79676267383 -13897.659325639017 78.66059757343129 116 115 114
9158.8291592438 -13896.628031734112 78.73795351801178 116 114 115
9155.149947274056 -13895.552794505595 77.93445522137638 118 117 118
9152.91463882951 -13894.490532969858 77.47390823183267 104 104 104
9150.106063639065 -13893.41764380897 76.87757055546956 106 108 109
9148.787039033854 -13892.36137516363 76.63480770056735 61 65 72
9149.683265270873 -13891.335096209908 76.91752324101662 46 47 52
9149.469861572125 -13890.293075347807 76.93707270939413 45 44 47
9150.0187140404 -13889.262549905705 77.13735710890217 108 109 112
9146.821954947976 -13888.1712445209 76.44982729353971 68 73 82
9145.125677174716 -13887.101096075123 76.1181688284623 94 95 101
9142.115441424286 -13886.005310858794 75.47535714200644 114 118 122
9139.323848575388 -13884.909396066558 74.88461824473696 96 94 99
9138.09890053102 -13883.839360324979 74.66518691006492 83 77 77
9135.797802871142 -13882.74639416527 74.19104738643458 71 64 61
9132.982534944036 -13881.639786154967 73.59539298901359 65 58 54
9123.633203749463 -13880.392481633244 71.45332479534825 59 54 48
9125.817924035991 -13879.381788726218 72.04180870315439 61 54 51
9125.576430334993 -13878.319773845671 72.0560194412116 63 56 53
9124.632212234928 -13877.241144655947 71.90401683825445 62 58 52
9123.350578442161 -13876.153126318448 71.67230162267424 62 58 53
9123.182742050374 -13875.090188305707 71.7041142433963 54 51 46
9120.222653017785 -13873.957399154453 71.07574248887289 67 62 59
9117.325811110755 -13872.822141790224 70.46259804312838 63 59 55
9114.853545679402 -13871.693996319309 69.95007503034077 61 60 56
9114.130424672707 -13870.60933112696 69.85112846875258 61 60 60
9111.462238380585 -13869.470054828087 69.29270371765105 64 63 62
9114.134121559115 -13868.477333970564 69.99597899419553 68 67 66
9109.19440542761 -13867.268742687063 68.90133006062304 67 66 66
9110.693446908963 -13866.243082283308 69.32754837943891 65 66 66
9111.18634186413 -13865.188889252382 69.51610620614363 67 65 66
9111.571804283809 -13864.131829495545 69.67927539383737 70 68 69
9114.034074136214 -13863.140311754285 70.33255554198695 64 62 61
9118.009817220613 -13862.20035576119 71.3427475357188 62 60 59
9118.769307861185 -13861.160146890334 71.59384376504983 65 62 61
9123.82591446679 -13860.264182743202 72.85844419695947 65 62 62
9119.68278615358 -13859.061484721033 71.95308367601469 62 59 60
9126.222117869635 -13858.223789092164 73.5668212025127 78 76 73
9134.256308307906 -13857.447321647078 75.53238526188065 132 133 129
9144.97153475029 -13856.777744534702 78.12914919342977 134 136 137
9155.55133072494 -13856.117072100584 80.69306261371963 131 132 133
9149.275171173616 -13843.321686560477 80.06261181215949 129 129 133
9142.400029823893 -13841.96237280883 78.51727045660365 114 115 118
9135.688153370475 -13840.60128761324 77.01092595178456 112 112 115
9129.293443842751 -13839.24591279089 75.57972077139772 122 120 120
9125.491013284416 -13833.743277915013 75.04585599181553 63 60 59
9121.805292331099 -13832.491421169061 74.2527345736686 62 60 56
9113.59764048736 -13831.003195222162 72.39879622132221 60 59 56
9125.509688618182 -13824.144947316263 75.69846227471764 102 100 104
9131.35156370983 -13822.343012478957 77.21123236954487 111 110 111
9126.530336686148 -13814.591758741457 76.58661356643228 70 60 46
9129.091296435177 -13813.682686821638 77.25782668128582 72 61 45
9133.796541521007 -13812.911985977247 78.43030081451212 75 65 51
9119.885604167366 -13810.961294710132 75.24950498334431 72 65 50
9119.123144687033 -13808.76376849539 75.21634064939218 73 61 47
9112.64060947304 -13806.183803662689 73.84691661812988 65 57 45
9107.977749908983 -13804.791783436687 72.83058042287253 63 57 42
9093.188972276868 -13801.615174672479 69.52353424945437 62 55 43
9085.440259796158 -13799.987388420703 67.7883044739203 66 57 44
9085.179585533084 -13798.870827805253 67.80163124954237 72 63 47
9088.502898439763 -13798.005793330556 68.65140488264541 73 63 46
9085.799693090574 -13789.020891714708 68.61444324949085 59 55 39
9093.730547143334 -13788.525809332996 70.53639901101992 65 57 47
9086.719312088515 -13786.890832808669 68.97726557671564 65 56 48
9087.028899552657 -13785.81473260196 69.12365291514946 65 56 48
9123.467795755892 -13778.95312006401 78.26396802021549 86 70 58
9090.234123420718 -13773.973546087956 70.6865079859197 75 61 52
9086.726986892974 -13772.57283049506 69.94596392709289 71 61 50
9083.855560612605 -13771.222084028337 69.35342316178642 71 59 47
9085.532470572736 -13770.262839786215 69.817511194065 71 62 49
9086.082106708907 -13769.206829144485 70.01970317640244 73 64 52
9086.894824793173 -13768.174564436631 70.28293766122744 72 64 51
9089.447189883414 -13767.297936809875 70.94991327586128 71 63 53
9069.226969240795 -13764.38331150837 66.33182092643729 66 60 50
9068.567235357017 -13763.207809923164 66.25410236599842 61 56 49
9071.2523331079 -13762.335481838121 66.95239442136551 56 50 45
9076.284271641045 -13761.68157428298 68.19477512492703 45 43 38
9078.088250335868 -13760.736214790835 68.68818361027343 67 63 63
9047.051282407558 -13756.739771250135 61.56742162346386 75 73 73
9049.242488084643 -13753.551697486208 62.30448475096025 81 80 77
9086.39753806417 -13755.974327682201 70.98838356996625 82 82 81
9086.312988810194 -13754.859758270128 71.04351540764117 91 89 87
9065.784185270053 -13751.762140827728 66.36429933551473 92 90 88
9065.313809886495 -13750.595560188904 66.33106908995607 96 91 90
9064.327553523199 -13749.377408437565 66.17847790930063 98 94 91
9063.389663861195 -13748.162503839998 66.03718470775769 87 84 82
9062.65346826069 -13746.966223281755 65.94266197592698 88 85 79
9061.979400341364 -13745.77496905562 65.8625938926067 82 73 69
9061.90790311004 -13744.643448385434 65.921978415327 71 64 59
9062.17544338733 -13743.54607900332 66.0597895973428 63 59 51
9062.063512267321 -13742.410012868271 66.1098528037853 65 60 50
9062.75976596575 -13741.356822669059 66.34676743098848 73 62 53
9063.202878306902 -13740.278099120045 66.52512734638766 72 59 52
9061.090814349816 -13738.933126097387 66.1130188151507 74 62 53
9061.647050029147 -13737.865314130557 66.31757922838099 76 64 53
9061.593719255538 -13736.733603043298 66.38130247231685 75 64 54
9061.184415397322 -13735.56373820789 66.36283657574924 77 67 56
9060.617050737568 -13734.376185394396 66.30792710861769 75 64 53
9059.265226069185 -13733.10316418801 66.0719907226125 75 63 52
9058.201071134434 -13731.85928121363 65.9025876386938 81 70 54
9057.865687003707 -13730.693212751348 65.90146741246521 68 60 45
9055.644838472543 -13729.319614281363 65.46538773335651 60 53 47
9053.40733079699 -13727.9409722206 65.02568170375112 74 66 51
9053.750734049248 -13726.845723041233 65.18141447821738 74 66 52
9054.6030264753 -13725.80756745093 65.45447035001585 73 64 51
9054.47073443892 -13724.659668367269 65.50048420062085 77 64 50
9054.48286030275 -13723.527697107147 65.57981178503846 75 65 50
9052.19751047803 -13722.13420062439 65.12971650402186 75 67 50
9057.200024316451 -13721.571237389448 66.35894917461627 75 67 50
9063.146771309948 -13721.123443402535 67.80524887488039 75 66 49
9071.194621006072 -13720.926642097153 69.73492163927418 72 64 47
9087.679966746968 -13720.610476174172 73.68182199674196 62 59 46
9087.931090828337 -13719.527484873726 73.81475316690577 59 57 47
9083.306266428252 -13717.867061540082 72.82559885644022 70 62 53
9083.937542002102 -13716.826309292415 73.04620074330812 75 71 66
9089.0827955896 -13716.326938448094 74.305128831636 70 70 70
9074.722230260099 -13713.484442903396 71.0774880136829 65 64 63
9088.023285978645 -13712.859706365462 74.28697096333926 63 63 64
9076.030567377798 -13708.032277128646 71.75720963857916 65 63 63
9073.477864769495 -13706.591816528064 71.24662275347868 68 64 63
9062.540216766709 -13704.098021139856 68.81051225986117 71 67 60
9057.59178475273 -13702.34305114622 67.75068391114407 63 55 44
9053.496703043445 -13700.689159626609 66.8872327652398 62 55 47
9051.69531620419 -13699.321295907988 66.55064956436102 64 57 49
9044.663948445126 -13697.28194810379 65.01402857524346 63 57 48
9044.512979790212 -13696.117416264733 65.05671826404748 62 56 46
9044.411542976239 -13694.958855201612 65.11079945757635 67 60 50
9044.062840052871 -13693.767808533112 65.10819444880845 64 56 46
9042.729210898726 -13692.44744874049 64.87978754023193 61 53 44
9043.892302403667 -13691.452778216511 65.22391553975716 66 56 49
9044.407614097472 -13690.37398737802 65.41947237029912 59 51 45
9046.755023380802 -13689.538621342677 66.03485683990706 53 48 44
9050.201168512504 -13688.852647729329 66.9017880459541 48 44 36
9051.525722383682 -13687.886893029348 67.28241141124782 47 41 36
9053.845988812092 -13687.056764213114 67.89097886532765 48 40 37
9057.100276277566 -13686.355933994182 68.7132274711972 52 44 40
9068.141397814468 -13682.18901709664 71.62376424061256 43 39 38
9071.15337543841 -13681.475949660211 72.3891395087918 45 41 41
9071.1294663708 -13680.341554721885 72.46004999184231 41 39 41
9078.026562871148 -13680.180892213428 74.11326084719965 38 37 41
9078.624097520938 -13679.138549094969 74.32593565194652 64 63 67
9080.04198965643 -13678.2133523807 74.72604624951829 61 62 66
9080.88451276603 -13676.082141568677 75.07058801103256 75 77 75
9080.276868134944 -13674.868774194618 75.00783014551327 69 70 72
9108.516647692946 -13675.616134149015 81.68192070406559 61 62 60
9085.40015159977 -13671.113970916116 76.48136054736472 72 72 70
9078.288132763919 -13668.941030481297 74.93455591927467 79 77 77
9080.067681753728 -13668.075841729986 75.41673331851854 79 79 76
9073.960292425902 -13666.038735636457 74.09998203902396 61 58 49
9068.213121614946 -13664.046980636424 72.86594481301418 58 54 43
9058.699162125231 -13660.338223379014 70.85089252864607 45 41 38
9052.71847467812 -13658.288314440419 69.5651765143735 35 34 35
9048.192541052855 -13656.45155660255 68.611478007918 34 32 33
9045.780947263194 -13654.931793629252 68.13984762235476 32 32 33
9044.63988869699 -13653.603707516262 67.95781806475158 36 35 37
9045.482299451955 -13652.579897609432 68.22755213720143 44 43 41
9046.472661151503 -13651.579934494977 68.53090649003224 52 48 47
9040.619965887232 -13649.515870203812 67.27662432496746 54 48 47
9042.867437997276 -13648.710030538352 67.86621752665083 48 43 45
9043.443870705058 -13647.644624638437 68.07542485172088 42 39 38
9043.733975880812 -13646.534618264683 68.21946262399054 35 33 33
9043.40933180853 -13645.327409135996 68.22367801988923 41 37 37
9042.83851854997 -13644.080370634021 68.17196432918279 40 36 33
9040.671821396845 -13642.577384326347 67.75751671694556 49 45 42
9037.624752886502 -13640.929978126676 67.1431843246724 50 47 43
9034.66322209362 -13639.291970445853 66.5485858170149 46 42 38
9032.666565405616 -13637.805805173299 66.17349295940706 47 42 38
9032.805837859532 -13636.66372061106 66.28378008450565 44 41 35
9035.073319980009 -13635.868824985115 66.8773991095821 48 45 35
9042.874061245662 -13635.98334881786 68.72720625309834 46 44 36
9039.31493373254 -13634.239354738947 67.99746293583706 47 42 36
9038.64467896186 -13632.967522848348 67.92374412846478 45 42 33
9039.134731852753 -13631.887022546613 68.11340167862586 44 41 34
9046.893402633392 -13632.017672275539 69.95210189111356 44 41 33
9045.286461787626 -13630.592287529456 69.66570517302333 41 39 33
9042.25183590532 -13628.924723985558 69.05569685618836 41 39 35
9040.825262722881 -13627.523927751423 68.81058951780194 41 38 35
9040.03398379674 -13626.22850611131 68.70964497686704 35 33 32
9039.699033763709 -13625.009339596067 68.71221374244305 44 39 35
9037.699116882746 -13623.505333192314 68.33754933769904 45 42 35
9020.107141394432 -13619.326694669764 64.43066094102942 46 45 36
9021.417655615938 -13618.375598271117 64.80695128350037 45 42 34
9020.18859256559 -13616.987436067751 64.60802261769032 44 39 35
9020.663108871702 -13615.892757683074 64.79493796232195 42 36 36
9022.74181491727 -13615.077755934022 65.34496267805679 41 36 31
9023.356756280204 -13614.009546067588 65.56352917066137 50 42 35
9026.480136926122 -13613.38205207213 66.34965349804396 52 45 35
9004.527873293235 -13607.153036530437 61.542936043135505 49 44 39
9013.93876564768 -13607.634425128379 63.75138442697207 51 48 45
9017.976460593587 -13607.171018496912 64.74414803923025 35 35 33
9020.166933457886 -13606.382486428136 65.31899962107846 49 48 44
9075.963891300022 -13615.222261502824 78.00863793624256 43 44 43
9049.21116613324 -13609.25914073135 72.04086177445643 46 45 45
9037.218524756632 -13605.92966321617 69.40996465907158 51 52 52
9041.24370060251 -13605.492592718241 70.3979687427742 47 46 48
9046.195817699376 -13605.22979049475 71.59493138674077 51 51 54
9051.259740640238 -13604.994006227584 72.81669316549183 67 66 67
9054.991716844324 -13604.52029456289 73.73735380602035 66 66 66
9056.599337432524 -13603.65982928404 74.17827202372636 76 74 78
9064.201610068181 -13603.910616122634 75.97161748531497 68 66 69
9068.612626154565 -13603.578892383817 77.0443853529165 87 89 93
9069.898632813884 -13602.670439331669 77.4119602319557 94 94 99
9061.60288852474 -13599.970742931702 75.61885356527624 93 95 98
9059.642127892586 -13598.449072908465 75.25470598297515 98 100 101
9056.530751508155 -13596.707614680628 74.63141154342745 100 100 102
9057.18385150144 -13595.673754678159 74.85674491823517 104 103 106
9049.898412293143 -13593.133420802495 73.29345426916927 91 93 96
9044.176900664477 -13590.880830667184 72.08314086185194 85 89 96
9044.270837597356 -13589.732206020662 72.1830741695541 52 60 66
9044.12428139446 -13588.537323802177 72.22886407787053 81 88 89
9027.350175204221 -13584.139527959862 68.53152900693847 88 92 97
9028.001768161743 -13583.08661374186 68.7577902203067 88 93 97
9030.551723777473 -13582.402598176215 69.41118531114944 95 99 103
9027.103355678051 -13580.554195496972 68.71486696491112 91 96 100
9023.125940178943 -13578.597460653058 67.899885427111 59 64 67
9018.646186518206 -13576.536535801948 66.97232108521753 38 39 43
9019.355584171004 -13575.490065237993 67.21191183265961 40 39 43
9007.788667738969 -13572.020768928662 64.69183161188651 48 47 46
9016.57058988829 -13572.566545095076 66.7461593487437 22 25 28
9018.288600815978 -13571.719907130346 67.21243037822876 20 22 25
9022.256682919153 -13571.324253694456 68.18404226818434 30 29 32
9037.617859043557 -13570.865443166727 71.87288383944848 26 26 24
9040.928197678224 -13570.360086712863 72.69527953552543 27 27 24
9036.524129732099 -13568.293563800675 71.78611577767768 27 29 27
9050.976102749208 -13570.060226330608 75.1081721328969 27 28 27
9049.019322336224 -13568.494099219126 74.74797444775743 26 27 27
9049.29453543973 -13567.382600284374 74.88856685603196 26 28 26
9042.624871154952 -13564.842742839028 73.4718745881513 23 24 22
9034.885941669985 -13562.07276509019 71.81610466034758 24 25 24
9030.428672519565 -13559.971407343737 70.89662477737468 25 27 26
9016.530192471206 -13555.902118522652 67.86186068151542 42 41 41
9022.980896053537 -13556.055264399267 69.3875838829426 40 43 42
9027.700332622711 -13555.854999690595 70.52491674341785 37 41 45
9034.16991757665 -13556.028264798513 72.05377742728841 65 66 71
9042.32253641777 -13556.564561340901 73.95889332567435 74 76 83
9056.943030320965 -13558.478031038903 77.31116484126461 82 85 88
9042.518077771221 -13554.256456418014 74.16131881356637 81 83 85
9042.928555406292 -13553.168736002313 74.33251517801492 72 73 74
9050.146707683722 -13553.533382146163 76.0267037806465 80 80 80
9049.876207012485 -13552.305317682401 76.04522032515551 79 81 82
9052.356316708881 -13551.667138912446 76.67888817055523 84 85 87
9054.347207767665 -13550.926796055792 77.20296047337878 98 99 101
9055.118075445913 -13549.9253747519 77.45414658444606 99 100 100
9056.25859545857 -13549.00491082273 77.7878887310369 101 101 99
9056.656989566382 -13547.924419523322 77.95571955207829 96 95 96
9057.034961490404 -13546.839791362818 78.11896672411768 66 66 71
9056.801667388096 -13545.62168797023 78.1456703769872 84 86 89
9039.560213432867 -13540.669296986956 74.3744996487787 86 86 90
8996.425708107048 -13529.990628704501 64.82426775055437 66 65 69
8985.603433162816 -13526.390082315034 62.49036735510357 59 58 58
8975.385446909879 -13522.90819811559 60.29234931055494 70 69 68
8963.542186414525 -13519.050598651369 57.73268650506734 74 73 71
8961.226719870157 -13517.300953120719 57.29946987251195 77 76 75
8957.143138459633 -13515.152343008087 56.47216474023197 58 57 59
8957.115241260986 -13513.907834935662 56.54956131124119 62 60 62
8959.702164614173 -13513.251570299175 57.209885319613015 68 66 65
8961.321101468353 -13512.380107625162 57.654240843275666 65 64 61
8955.83806769198 -13509.902307124059 56.51592272547846 70 68 65
8951.136005402821 -13507.594046158694 55.5521236432548 78 75 75
8955.24975608315 -13507.287711511028 56.552391113396695 83 82 80
8950.718080819595 -13505.010951855735 55.62703797557485 92 92 89
8955.985555377605 -13504.97402734697 56.883841534635096 75 73 70
8961.158016941026 -13504.922328788718 58.119017922403415 55 53 51
8964.906885369932 -13504.549245729966 59.03690571885087 53 51 48
8960.707212236994 -13502.342404732612 58.18588863986145 57 53 51
8960.917680507471 -13501.152731885159 58.31634272798064 56 51 49
8961.106406825027 -13499.958043325661 58.44195824623273 54 51 49
8962.114807842258 -13498.954693253801 58.74983690226806 51 47 45
8967.496743582591 -13498.976391807391 60.029937654827975 52 46 47
8965.73368528682 -13497.32763674912 59.72144950879518 43 41 40
8960.72074877891 -13494.910820583877 58.69095448377901 30 29 31
8958.336256607145 -13493.107612814845 58.24491818753106 21 24 27
8961.400187821377 -13492.591546483778 59.00936167685597 23 25 28
8965.72763805101 -13492.37970286532 60.05413523572554 20 23 25
8965.261670530203 -13491.031417562326 60.03422481908954 19 23 25
8966.849040226582 -13490.172954552847 60.47018561122391 23 25 26
8972.695876715336 -13490.337381156292 61.851352025834686 30 30 30
8962.866396166111 -13486.741421930778 59.75354966185085 38 38 34
8954.394014465706 -13483.458672943943 57.95775402344408 46 44 40
8948.809265003507 -13480.86201572974 56.803241193806336 37 35 35
8950.588348366962 -13480.042850202419 57.28219984491872 54 53 53
8954.544045892002 -13479.755205933669 58.24356899552011 65 69 71
8958.023785999198 -13479.356760316688 59.099083673052995 65 68 73
8967.148550831704 -13480.343509885848 61.2052721527681 65 66 70
8972.903573511532 -13480.516269280492 62.56401283137525 57 59 65
8975.756060844418 -13479.982898682876 63.27927506654041 62 66 75
8980.718191986714 -13479.973633653093 64.46150134773903 47 51 56
8986.827867518345 -13480.254911053551 65.89736520736045 53 60 63
8994.419848591904 -13480.91217913409 67.66081100511589 52 56 59
8999.553242820002 -13480.968218026763 68.87940920734758 46 45 49
9000.504627855427 -13479.987954416016 69.17215202122718 46 45 46
9005.414274678576 -13479.998961459727 70.34051160708385 67 67 67
9006.517982609601 -13479.061847687011 70.66661226369068 83 83 84
9008.024502771086 -13478.227362982352 71.08170165701917 87 85 88
9006.95813479208 -13476.745717874906 70.92782727499139 52 52 53
9003.146161130908 -13474.567822212832 70.16717596740952 49 48 48
8998.15327077497 -13472.084801300938 69.14592510070288 52 51 52
8993.52779586754 -13469.687998898984 68.20634233847147 44 44 46
9003.280836263988 -13470.951782368405 70.44343043277384 44 43 45
8992.455527855825 -13466.965962356282 68.13482458259271 51 51 52
8978.739711224713 -13462.223445391426 65.18901893370928 59 59 60
8970.628157215402 -13458.90263369072 63.48171520274443 74 73 76
8951.775815790497 -13452.800620147667 59.40458621190604 80 80 80
8970.553897567386 -13455.160203268788 63.7167523064865 74 80 80
8962.590685671226 -13451.848476351512 62.04415885620234 76 81 82
8963.139216033 -13450.744010096168 62.24935965424828 76 79 82
8963.888887512474 -13449.692632501323 62.4988719146851 60 59 59
8975.698947874804 -13451.540585895182 65.18633702916671 51 47 47
8982.195828691343 -13452.008740343657 66.7017841176735 48 43 42
8995.15863392488 -13454.189326391936 69.64128288555952 40 35 36
9004.253216992234 -13455.365996054988 71.72745938716015 37 34 33
9016.414241236083 -13457.36740330326 74.48813480884532 49 46 44
9035.033901807494 -13461.100891392698 78.66979956319965 103 100 100
9034.603094446788 -13459.787601258146 78.65589844584257 118 117 120
9033.492269750877 -13458.291913487757 78.49238614705389 118 118 119
9033.477095251785 -13457.087708029909 78.57009072503989 118 119 120
9025.160333556973 -13453.65522102604 76.82146344403125 117 116 120
9017.459771376896 -13450.376610147876 75.20917682401526 109 109 110
9007.973786493852 -13446.60523628142 73.20501434934492 77 72 68
9007.569193116971 -13445.276736697593 73.19838246942753 56 44 36
8994.112885863144 -13440.407831313747 70.32290693179944 45 37 31
8988.6340771168 -13437.68883427866 69.20188249280676 41 33 23
8977.834718771966 -13433.511471722179 66.9123905139557 40 33 23
8968.218171916278 -13429.641930360322 64.8837672368728 43 36 29
8963.125814619307 -13426.998282658602 63.849677801139045 42 33 27
8959.579252707672 -13424.771867005533 63.15550377408383 38 31 23
8957.508681101333 -13422.946721324326 62.78570080977703 39 30 25
8959.973107805721 -13422.370632382075 63.41144134192025 36 32 25
8977.337535090677 -13425.922525814178 67.30646818660388 37 30 26
8982.5193371282 -13426.117540291363 68.52720864238 47 39 33
9008.527598424214 -13427.226350347892 74.64551387278125 84 87 89
9031.937577875782 -13425.358131268502 80.34614063390148 71 73 78
9031.914498379476 -13424.143704263974 80.42265308932275 69 73 76
9066.211053333014 -13432.792982095196 88.00540160379562 66 69 71
9051.224742318409 -13427.291023452834 84.80834506236592 47 45 46
9032.41639983285 -13420.663721850315 80.77716508413053 40 36 37
9025.028316710495 -13417.316155594823 79.24394354996872 39 36 37
9021.950534144451 -13415.208929888013 78.65334825941082 46 39 39
9029.5818972287 -13416.212937468494 80.40275710441335 55 44 41
9033.59978156963 -13416.173596828896 81.36216687507992 60 47 45
9028.306439325761 -13412.20482848011 80.369701361825 63 49 41
9025.621472222674 -13410.203204898866 79.86551357591496 64 50 44
9022.632811379792 -13408.108098226778 79.29532189448635 63 52 43
9020.475985068104 -13406.254067808997 78.9069301855714 62 50 42
9033.191501001698 -13403.95468050876 82.09006865296615 82 77 74
9045.050691743696 -13406.294591079473 84.75601182426271 75 71 69
9048.833629247636 -13406.226910160965 85.66138897539176 78 75 75
9044.997316480281 -13403.871952766596 84.90689863499313 67 69 71
9041.116690580653 -13401.497943699971 84.1431428187655 77 74 72
9037.93245211953 -13399.328692319777 83.53138635532629 72 63 59
8942.503482115375 -13367.927456406405 62.92796764003245 67 51 44
8940.030996815967 -13365.89733014271 62.47630152891427 67 52 45
8955.362784534165 -13365.488743712705 66.15475347702358 69 52 46
8952.791246764458 -13363.427171744825 65.68162410905279 68 52 46
8914.876091140512 -13349.15280791149 57.617053973498706 61 50 44
8911.844053893927 -13346.913375093236 57.04627944956621 59 48 43
8911.363322979469 -13345.46235209903 57.02979122500373 67 50 44
8906.65648932402 -13342.693831188672 56.09593655363668 72 55 46
8911.700614356207 -13342.9629824636 57.27888652833765 70 54 47
8924.78626353774 -13345.755657734171 60.206303978235496 67 53 46
8942.712096385883 -13350.084892111918 64.18252221115989 65 52 45
8951.394360910273 -13351.533441795946 66.15215632480228 62 49 41
8954.855702380792 -13350.076236395444 67.07478613338458 61 48 40
8963.07396813113 -13351.404353512682 68.94206378962016 65 52 45
9025.65118534318 -13363.869899938218 83.00139972111565 57 47 42
9028.21830658432 -13363.470878060562 83.63963720474678 56 48 45
9032.3812819799 -13363.589486293034 84.62293055883772 55 50 49
9031.369621913385 -13362.042729239261 84.486480324018 54 52 54
9035.160092688886 -13362.04847443868 85.38869298185102 53 52 53
9039.67100070856 -13362.293067243572 86.4463297839194 55 54 53
9041.652506248034 -13361.721609767474 86.95676262504838 55 53 50
9043.188897383925 -13361.00772251265 87.37082125842868 54 47 44
9043.86189658559 -13360.013882448722 87.59819062511366 56 46 41
9041.654849245131 -13358.078350279453 87.20334378028467 53 40 38
9038.469497704315 -13355.818595827479 86.59743378765971 44 31 30
9035.267425441241 -13353.548543222605 85.98823761320288 54 44 41
9033.862791137946 -13351.865674740166 85.7674023082535 53 45 40
9034.56215640572 -13350.875036146519 86.00083386809386 56 46 42
9031.382652589351 -13348.602037341012 85.39721072586839 60 48 43
9032.31527877379 -13347.68745560715 85.68105122673227 60 46 40
8918.414263985645 -13303.401004850348 61.54911939532812 58 47 43
8914.383615502391 -13299.43192826723 60.857351905517596 54 45 41
8952.146245709122 -13263.218479560433 72.29495984859581 55 45 42
9013.343956902543 -13244.15579802423 88.15485142419712 42 41 44
9017.33620188375 -13244.450018905633 89.08563100495084 48 47 50
9016.23426267965 -13242.766935649857 88.9368890559825 62 62 63
9017.499229989948 -13242.005005319657 89.28955953422238 64 62 64
9197.468985781079 -13960.043301082102 82.61499939398384 119 122 122
9219.922232705345 -13958.397384075319 88.08784380274395 50 47 47
9221.377722565883 -13957.375745704208 88.50430281889868 54 52 49
9211.768623081563 -13956.662475335968 86.25773093903916 46 44 45
9205.229448067843 -13955.853516108134 84.75071309603035 48 49 46
9185.222293926812 -13952.38080654091 80.20713303940731 68 61 58
9198.302429695037 -13947.08032824569 83.68808262222207 131 131 131
9196.63962807234 -13946.118015849941 83.35588933908069 155 157 160
9195.491307644419 -13945.143086064192 83.14740559814466 149 151 155
9189.391106602972 -13943.259251702075 81.81769103673642 147 148 148
9189.005424553381 -13942.263076533778 81.79275886142004 124 125 128
9182.761270586103 -13941.368080429947 80.36199365097686 138 138 144
9179.121456324381 -13940.421212596735 79.55664575897507 148 148 152
9175.590353602069 -13939.4676919001 78.77770690933717 148 148 148
9169.361032629125 -13938.55109118998 77.35194057355417 140 139 138
9178.481671563295 -13937.39902850502 79.60764143594297 131 130 130
9174.97221920791 -13936.437346471263 78.83442301782324 135 133 135
9174.962721036925 -13935.423650505018 78.90050542573861 135 136 136
9174.566492124211 -13934.414719150072 78.87391475832109 138 138 139
9184.166465226455 -13933.282999123167 81.24270960596726 143 148 150
9183.554398287955 -13932.281618037588 81.16406744040854 118 120 124
9181.376748290408 -13931.296340387717 80.71047616663152 113 116 122
9180.384449727962 -13930.295872734809 80.54097259746486 109 111 116
9177.724278535814 -13929.30997042454 79.97219674480522 86 88 89
9174.07682180679 -13928.329283064628 79.16730417428359 78 74 73
9173.73828709598 -13927.316123453038 79.15477605750556 115 110 108
9171.045974375593 -13926.320397095016 78.57898717258662 124 123 122
9171.178030393541 -13925.301131489576 78.6792484522338 121 120 120
9170.126605412277 -13924.289389825899 78.49638559014106 71 66 64
9172.636656237635 -13923.255675992226 79.16548936958858 55 51 40
9176.62725471454 -13922.21749754429 80.18845091771792 57 50 37
9181.606325350396 -13921.179919318141 81.44742045040763 61 52 43
9186.732881950975 -13920.14804988347 82.74122489879247 87 74 66
9185.4552717206 -13919.142715821692 82.5039166547344 163 161 161
9182.491063217514 -13918.139718385679 81.86368896589441 163 162 165
9181.419386879883 -13917.129199992874 81.67590757156776 160 159 162
9179.960046689388 -13916.117552574502 81.39562766460679 160 161 164
9178.617088068087 -13915.10374960394 81.14328517256868 151 152 156
9175.245587072279 -13914.087774218904 80.40667056459492 91 94 100
9169.837068437162 -13913.065663778129 79.18402712569308 42 42 44
9171.473927084404 -13912.046281734292 79.64364510980211 48 44 39
9170.715451326472 -13911.02388669723 79.53145723488565 51 46 38
9169.836426897773 -13909.999979626027 79.39058413041836 55 50 39
9170.844798994945 -13908.981080819454 79.70008611383642 72 69 62
9172.36988545666 -13907.965370269143 80.1327651943885 94 92 89
9172.426728180846 -13906.944595333072 80.21516721003991 97 93 93
9171.728351116117 -13905.919680625091 80.11750087646982 97 93 95
9170.317370880271 -13904.889405488244 79.85002540360432 103 100 98
9165.208774617395 -13903.83261992963 78.70134186570886 102 102 101
9167.352129326468 -13902.821704788628 79.28134087892815 106 107 102
9167.583101544396 -13901.798233278205 79.40550706963664 115 113 109
9168.088743922432 -13900.777218187493 79.5950992277196 120 117 114
9166.79931799543 -13899.74010369878 79.35711224187969 110 109 107
9165.984833026232 -13898.705799827992 79.23235227158719 112 112 107
9163.10297007355 -13897.648468322646 78.61545239779387 133 132 126
9163.361548001552 -13896.622290463616 78.74639334974165 138 134 131
9159.741744143905 -13895.550358571702 77.95425667596979 138 133 123
9157.240323269983 -13894.487467143197 77.42858176207034 137 135 129
9153.970340638041 -13893.41101442924 76.72028768450107 137 136 131
9155.230591821808 -13892.39256390762 77.08990849957853 133 132 131
9155.176428235009 -13891.356573563637 77.14682799259882 121 120 119
9152.363164597764 -13890.278661997678 76.54769737973814 84 85 86
9151.350487515354 -13889.225231105509 76.37689855097527 77 80 79
9147.39081552663 -13888.121941716283 75.505715264313 75 77 80
9145.752785457533 -13887.05287151391 75.18663583062094 78 80 83
9145.187873519177 -13886.000460723817 75.1226951265243 95 97 100
9142.047959022697 -13884.899829246777 74.44709179530044 65 63 64
9138.450705112913 -13883.786194504357 73.66315198128278 97 101 99
9137.355895845369 -13882.716871907942 73.47381140994285 59 52 47
9134.608628895976 -13881.612332532643 72.89223632929884 64 56 48
9132.718929567574 -13880.521984151603 72.51449267039713 63 55 45
9133.862887347157 -13879.494576985193 72.85694638773693 65 57 49
9134.954719758261 -13878.467299996586 73.18694372079658 67 58 51
9132.653218217976 -13877.363409243815 72.7117742732639 62 56 47
9130.19907704581 -13876.252700149658 72.20061402125788 66 58 50
9130.95230774754 -13875.216343571661 72.45036502977807 66 61 56
9125.824457374774 -13874.034316566249 71.30552825313649 60 56 51
9123.113455895591 -13872.907135663401 70.73414006726826 66 61 52
9120.902050215875 -13871.789292795029 70.2814263808693 58 53 46
9119.944115599326 -13870.702022969372 70.12598178648261 60 59 59
9119.445003845141 -13869.625918698826 70.0793518359638 63 63 63
9116.99199083599 -13868.493897225631 69.56989802277849 65 64 64
9114.23096069038 -13867.349571812421 68.98771893004704 65 65 67
9114.80714491362 -13866.299827940005 69.19609367240095 61 61 63
9115.012799592907 -13865.239462339852 69.31670166311407 66 64 65
9115.55744788706 -13864.189599470186 69.51755360763296 67 66 66
9120.105790239499 -13862.202470406817 70.73769012129769 61 54 50
9122.264389409931 -13861.209283708977 71.32013415441752 60 56 54
9123.814147011628 -13860.198372699468 71.75838111661012 45 44 44
9126.512697494434 -13859.228441203646 72.46819820462048 46 44 45
9129.307570628487 -13858.265192256944 73.20056668390214 80 78 75
9139.031890120237 -13857.55067121623 75.57092509385895 111 113 113
9149.352575615258 -13856.8702183345 78.08139937494981 74 75 80
9160.161840595136 -13856.221056050295 80.70643724728873 89 89 88
9153.846114863329 -13843.457319613017 80.05885539781248 130 131 131
9147.421752913111 -13842.12089608259 78.6148204564193 136 137 135
9140.802119387798 -13840.766836766192 77.12534353522715 141 141 139
9132.911413216229 -13839.344643879753 75.33692683835243 156 156 154
9119.894223333204 -13835.531772866741 72.4854955706101 57 59 61
9115.575200621406 -13834.249942167155 71.54053738070026 58 59 62
9121.629521495504 -13832.411034590652 73.11030940671283 60 59 62
9125.01427451342 -13831.515565027186 73.97897181302154 56 58 61
9128.49571204956 -13822.106437903893 75.4447738863973 123 126 130
9107.322709171702 -13804.669854534353 71.56433118893186 60 56 45
9106.097337579738 -13803.503374682341 71.35036319466266 60 57 44
9098.44676409336 -13801.895603488612 69.63180350773776 60 56 47
9096.68923659586 -13800.6844355747 69.29376916769601 62 56 44
9099.846922160585 -13799.813420566345 70.10655866674347 66 58 43
9100.112258935294 -13798.742802424236 70.24211011980728 70 63 46
9100.745903348552 -13797.698490778736 70.4638401520215 70 65 48
9133.927870957586 -13779.74532882966 79.59826752222443 76 65 50
9137.814452479903 -13779.002078753725 80.57650351824483 79 66 50
9100.520019563255 -13770.386297634368 72.2514809027774 71 62 50
9101.061310956466 -13769.33948368621 72.45132563497337 71 61 50
9102.604126809587 -13768.382331267927 72.88429011230745 70 61 52
9102.252468659452 -13767.257114584583 72.87618378477238 68 61 54
9086.322752905458 -13760.302459957664 69.54107886769498 73 71 69
9100.74966285945 -13758.355248897054 73.11753880336029 76 73 72
9095.200478453198 -13756.727343839673 71.90215116953098 81 81 79
9084.661879652127 -13753.5029372863 69.6029322679723 92 89 87
9070.908517971571 -13751.050899625881 66.48394515120602 93 90 87
9070.27191793787 -13749.870587438902 66.41150925618611 97 93 89
9069.030756735296 -13748.629325335567 66.1988130327323 86 83 80
9068.24408179498 -13747.431499322747 66.09171995856097 81 80 78
9067.456403229515 -13746.232298657002 65.98447990624692 77 72 69
9067.40922410501 -13745.106651028842 66.04911262913235 70 63 59
9067.437349157246 -13743.988379322493 66.13123075173276 63 56 50
9066.812735878133 -13742.803089620294 66.06199292896238 66 59 48
9068.57381573049 -13741.862614344162 66.5459546458946 65 56 46
9068.23631013545 -13740.706589049401 66.54330530264559 69 58 50
9066.462339853862 -13739.399921014914 66.20778370066256 73 63 53
9066.508084988762 -13738.281854493262 66.29409568724121 75 65 53
9066.013284728548 -13737.106469211449 66.25518955827673 71 61 49
9065.059378638653 -13735.881343795483 66.11000218464076 73 63 49
9065.511585485907 -13734.805289223625 66.29054502030608 73 63 50
9063.789368744598 -13733.495314694732 65.96760517936903 78 67 54
9063.3545274802 -13732.322391900234 65.9428512993278 75 65 48
9062.362610355447 -13731.08788782458 65.78921921628054 55 49 39
9059.365148663015 -13729.631683994325 65.17160901677822 69 62 50
9057.990682575084 -13728.350476000645 64.92977284653016 75 66 53
9055.953412925233 -13726.99355377461 64.5347635026176 76 65 53
9059.568489117572 -13726.265509373694 65.44713839297025 80 67 53
9059.530924539029 -13725.131340755552 65.51464162779793 80 67 53
9057.14729350422 -13723.731494728514 65.03981495576483 77 66 55
9058.185382212 -13722.717610614927 65.3560751787779 79 66 55
9060.080657962999 -13721.803022200485 65.87033757724451 77 65 50
9064.402773822234 -13721.170194932372 66.94513425739449 75 63 52
9073.63820432446 -13721.112000438301 69.15449113306046 72 62 49
9086.878361837193 -13721.532514689763 72.28790415826488 74 63 50
9087.687652953957 -13720.514199184216 72.54982601058832 74 65 53
9087.805375037322 -13719.4152620334 72.65203634934674 67 60 51
9088.580979747838 -13718.394227731096 72.90609716400402 74 66 58
9088.860909572411 -13717.314942705101 73.04571783951339 68 67 66
9090.048450293982 -13716.344595875655 73.39473180761121 57 56 58
9089.195535991017 -13715.129697058244 73.27297185601809 65 62 66
9088.722808726188 -13713.959508597194 73.23898638089922 63 63 66
9086.976949971515 -13711.518471802332 72.98666504939256 62 63 65
9085.430942687091 -13710.212919482528 72.70550608250294 59 60 63
9082.890815312836 -13708.78189373223 72.19541023657813 61 60 64
9075.975707228357 -13706.802224769033 70.67755664772531 84 83 86
9070.414422567614 -13704.982568320938 69.47220869818659 66 62 53
9070.369514408956 -13703.849810652622 69.53786314013216 64 57 47
9066.221431134556 -13702.1973285344 68.65871746529167 65 58 47
9060.1575708346 -13700.295204993921 67.33891430723811 63 56 45
9051.704582104783 -13698.078996590393 65.4697619606737 62 54 47
9051.244736109762 -13696.879226197543 65.44084717378291 65 57 46
9050.594297571904 -13695.65396648867 65.36813730695955 64 58 43
9049.882589610823 -13694.419639221653 65.28140762021859 66 58 48
9049.40335656303 -13693.21449631116 65.24822543285363 66 57 48
9050.216305009346 -13692.178170467267 65.51223504526261 69 58 48
9051.99146028246 -13691.269725261871 65.99739829632232 63 55 44
9051.854858639084 -13690.109815275895 66.04298701528944 52 48 38
9051.897067096528 -13688.973338611602 66.12969578123483 46 43 33
9054.500813095417 -13688.180002492558 66.80496611850194 51 48 43
9057.184190000393 -13687.400688094107 67.49830697719334 49 44 43
9059.458720157145 -13686.569429106177 68.09751716621818 63 59 55
9069.300573618671 -13683.375618273987 70.6631141746783 55 50 46
9079.67573629969 -13682.557883046633 73.19585423070636 50 48 50
9085.13945352633 -13682.197910919189 74.52486899161869 49 45 49
9088.150537654305 -13681.499804001829 75.2909911822491 51 49 52
9088.821836413304 -13680.474543428616 75.52042856326922 70 70 70
9089.620768617471 -13679.468113597428 75.77907527699196 55 57 58
9090.59949750992 -13678.48822456654 76.07886810779455 64 65 64
9091.218847037919 -13677.457868050864 76.29624354855294 65 66 65
9092.243325195597 -13676.486542114877 76.60638397956228 73 75 76
9108.459589726051 -13677.717081451307 80.3958776414491 74 79 80
9109.174461106044 -13676.713337583114 80.63426941273923 71 74 73
9108.82430133523 -13675.554617404563 80.62877994382977 64 66 65
9109.928146780234 -13674.60879064764 80.9561540519646 67 67 67
9078.115688128548 -13668.806604994643 73.75052152899354 71 74 75
9077.958407253966 -13667.65402037087 73.79067809230163 80 82 82
9072.302954636985 -13665.682136354595 72.57310697468783 68 62 58
9066.719254122912 -13663.713080658172 71.37247964850262 57 49 43
9059.566678895642 -13660.35765643469 69.89068178610272 49 44 41
9054.341365758853 -13658.422237431032 68.7733698136873 33 32 33
9050.507578520075 -13656.69145996713 67.97455767528717 31 29 30
9048.516877276888 -13655.237253635429 67.59722851387173 35 35 37
9045.94030198117 -13653.690068123446 67.08626117258152 47 44 46
9047.298999277267 -13652.746640617774 67.47433246445264 50 46 44
9047.799153931663 -13651.671714589951 67.66624920527047 54 51 47
9049.857603674598 -13650.839916067349 68.21389548563305 53 50 48
9049.806015514258 -13649.680654744898 68.27974179901595 38 37 37
9050.478332939949 -13648.634814857305 68.51081004256417 33 31 31
9052.149659155264 -13647.747278942847 68.9697689246846 36 33 32
9051.512181722328 -13646.495949716831 68.90191197887003 39 37 37
9054.26778251796 -13645.783483634568 69.60799260955419 46 43 41
9048.528782320824 -13643.716961368804 68.376851402686 52 48 45
9045.757221515694 -13642.118659066955 67.82276792160211 59 54 53
9042.46114421092 -13640.43180822441 67.14939978003137 53 49 49
9040.865553863925 -13639.015477545361 66.86386977636485 53 50 49
9040.67829184844 -13637.825655257693 66.89937763151691 53 51 47
9042.066169765923 -13636.892449588619 67.29372806543392 53 51 46
9048.358738281526 -13636.764821001008 68.8050073556613 52 51 46
9048.17017982325 -13635.578821960096 68.83994782810599 54 54 49
9053.566174860724 -13635.315305041093 70.14628674548773 47 46 39
9050.267012317374 -13633.615924909493 69.47302665855486 44 44 35
9049.937695230978 -13632.406697297694 69.4759200201563 44 42 36
9048.809027993868 -13631.063043365528 69.29699148860855 44 41 36
9045.528406402558 -13629.35608454881 68.62867001427861 43 39 36
9043.78419778615 -13627.903584851143 68.31008854397706 41 37 34
9044.794450785384 -13626.914990783944 68.61799632846564 40 36 33
9044.223252073507 -13625.65861759672 68.56630692838851 40 37 33
9042.508913484402 -13624.20605858465 68.25486245941694 45 40 36
9028.608801623635 -13620.662054168017 65.17445936239002 47 43 36
9029.535552542873 -13619.650552072982 65.46397136198318 47 43 35
9030.09562767283 -13618.576727660491 65.67012291269391 50 44 39
9030.314708229058 -13617.444283798834 65.79879704899498 52 45 40
9030.037595747997 -13616.225492345591 65.81480180136529 53 48 39
9030.290284623876 -13615.098718201696 65.95111935609131 54 47 38
9032.87788821486 -13614.381887727439 66.61737631095984 53 47 38
9034.018840008594 -13613.413455524284 66.95513568391185 52 47 40
9008.157413319086 -13607.669845629249 61.16666785173936 55 49 43
9030.921769486067 -13610.525397879446 66.41028452090215 56 51 45
9032.433973819441 -13609.623450551755 66.83221660752858 43 40 36
9033.721953758457 -13608.683217311318 67.20318512116644 38 37 33
9052.142467842232 -13608.506489194213 71.61394445415547 63 63 64
9050.93660633259 -13607.12926305288 71.41884550532464 71 73 74
9048.342989426304 -13605.497061533155 70.90954098816923 72 73 76
9086.675528156677 -13611.353010878462 79.66855210663532 69 72 72
9063.842207573956 -13603.720048896444 74.73059354843093 69 76 79
9075.739935201409 -13604.779212287061 77.50037028364935 77 81 85
9081.0722972845 -13604.63009893537 78.78379966629603 76 79 84
9050.56350776928 -13597.77940523692 71.96018291458921 75 80 83
9055.298822950926 -13597.507703531886 73.10930248709985 79 80 86
9052.632970509649 -13595.846772523819 72.58468517508622 76 80 85
9052.91580415512 -13594.73995296503 72.726855860673 86 88 91
9052.245367509138 -13589.968326309321 72.88849167337335 72 78 81
9044.740417759176 -13587.360530982027 71.27213585843525 53 62 65
9041.62486602749 -13585.59093109534 70.64745699034229 48 52 58
9033.041400967812 -13582.75574885025 68.78888233784727 92 94 99
9029.257612182624 -13580.843210633464 68.01426549738213 91 95 100
9026.454401344094 -13579.116861793742 67.46125775383018 56 58 62
9021.448451382159 -13576.954422059329 66.41163734750387 31 37 42
9018.935911428382 -13575.2755701999 65.92483961090524 43 48 49
9023.45498760307 -13574.98172807592 67.0238138875801 44 41 38
9020.214347199491 -13573.156025991613 66.37304648832607 41 39 38
9021.73093088299 -13572.271703496042 66.79483597814517 46 40 36
9023.300543577016 -13571.399816793277 67.22845035614814 43 38 33
9026.26451994959 -13570.809079898088 67.9760835029461 28 28 26
9034.761703331646 -13571.33403893448 69.96982563830865 27 27 25
9037.590218369001 -13570.72750588326 70.686175528585 24 25 24
9043.727212172365 -13570.794010132833 72.14721355719186 25 25 24
9051.377016744917 -13571.17586179466 73.94824983066307 26 28 23
9053.749425529923 -13570.493031759166 74.56082543079648 21 25 24
9052.85818988185 -13569.146187217608 74.43881100953813 23 25 24
9043.992964751553 -13566.162572775316 72.52296003366412 26 27 25
9050.328745629338 -13566.29440242651 74.02706397525822 23 24 25
9043.227023885931 -13563.66042711461 72.50876478086967 23 24 25
9036.799283361634 -13561.156024423924 71.1426764842264 26 25 26
9018.738213504654 -13556.224605627336 67.16218046175932 36 35 36
9021.083740036094 -13555.523450881978 67.7695721263959 30 31 32
9024.040546814898 -13554.953194624572 68.5141122146416 37 40 44
9030.282004326073 -13555.076288080332 69.99628066819645 53 54 58
9036.311857618193 -13555.163208755952 71.43035678086463 69 69 73
9040.312099849705 -13554.829377744994 72.4081291621984 81 83 85
9041.860654782682 -13553.98111007981 72.8351223557668 79 81 83
9039.963693723794 -13552.401949641095 72.48860376765657 71 72 73
9052.248238135446 -13553.845893643324 75.3248082188749 97 98 100
9051.159485615352 -13552.443835593403 75.15934939495693 75 76 78
