ply
format ascii 1.0
element vertex 736
property float x
property float y
property float z
property uchar diffuse_red
property uchar diffuse_green
property uchar diffuse_blue
end_header
9015.291616337505 -13621.545098729686 70.8706706673705 42 36 35
9033.552178731568 -13622.243462882972 75.25687090203505 45 40 37
9030.04212700104 -13621.178509419582 74.48499083790377 46 41 39
9031.141688946578 -13620.489390976481 74.80507025206829 45 39 40
9012.133320802206 -13618.13686715063 70.36366703663886 42 38 37
9008.060610712551 -13617.009344392683 69.45977805805936 48 42 39
9001.19947708591 -13615.644284440328 67.8961264984982 49 44 40
8982.79841310772 -13611.694628941905 63.724620469368034 39 37 37
8982.461952248268 -13610.862725184546 63.706491402714285 48 42 38
8980.815568185477 -13609.91754081134 63.378553901032404 48 42 36
8984.732170279549 -13609.4527074955 64.3663677083872 51 46 41
8980.294589285762 -13608.263647455891 63.37847848321918 58 50 47
8977.110836204922 -13607.180058951753 62.687357067756395 63 55 52
8978.392727280361 -13606.486741625462 63.05208717206444 62 56 52
8986.84873887055 -13606.430136077059 65.11231251631963 61 56 51
8990.673982771084 -13605.969164434935 66.07761902071137 56 51 46
8989.497508160648 -13605.063866036995 65.86087676488454 58 53 50
9000.192863935763 -13605.226342028238 68.44878075072181 54 50 48
9008.625836239611 -13605.194298624552 70.50152461227181 65 65 64
9013.562258032916 -13604.852115230504 71.72789745747464 46 46 47
9020.719627067838 -13604.71785878457 73.47832990638923 66 64 63
9021.055154843732 -13603.962950770216 73.61768679859041 66 62 62
9022.341188350221 -13603.296180518362 73.98139212872323 51 51 51
9023.671628548578 -13602.634703928807 74.35548878947246 53 51 50
9025.330709655193 -13602.005145525523 74.8070442198714 64 63 59
9028.423190742571 -13601.51175255929 75.5966771350802 100 103 104
9031.587591211954 -13601.028070693796 76.40305237377126 107 108 110
9032.111009688715 -13600.296751423732 76.58628526250175 110 112 114
9033.588993951884 -13599.65690991401 76.99459805853608 102 107 108
9033.590232341037 -13598.876844322329 77.05460542061883 93 97 98
9034.671490936746 -13598.200765210633 77.36923674754532 95 100 102
9033.437289436986 -13597.301418124178 77.13800395773775 83 89 91
9030.945399142798 -13596.278379464635 76.61045923298609 73 77 78
9029.774401316603 -13595.382039343227 76.39436286936264 77 79 82
9029.263219564906 -13594.549338909139 76.33381524828499 77 81 84
9027.428187591875 -13593.585279336683 75.96145687624492 73 76 79
9024.031377346586 -13592.464309810288 75.22139645550958 62 66 69
9042.512167988969 -13593.522454553071 79.6336027008816 59 62 65
9044.258149435382 -13592.920894268545 80.10414305465999 63 66 71
9047.244040583055 -13592.445848855858 80.86645665344788 61 64 72
9046.8104884851 -13591.62751491799 80.82368335820992 61 62 70
9046.619680890168 -13590.83336564853 80.83807693982124 65 67 71
9015.28454452965 -13578.950054827937 74.12917895928312 62 62 64
9017.982529977466 -13578.449131071933 74.82347536607318 69 73 75
9021.922652212415 -13578.084943717247 75.80930412811058 71 76 79
9024.94127731947 -13577.624510541136 76.57845784568106 54 50 45
9023.961755442258 -13576.731107871845 76.40868980395807 57 50 42
9025.28388025191 -13576.08868530319 76.7793063652143 60 53 45
9008.250494769294 -13573.428694457958 72.84161018015666 62 52 45
9003.183219671091 -13572.073905075073 71.71330965466146 61 54 45
8997.90028619714 -13570.690163315938 70.53479256757117 61 55 48
8993.36496038656 -13569.384503297539 69.53206341615471 60 51 47
8990.981412585843 -13568.315188535844 69.03440175569354 54 51 46
8987.502860131784 -13567.120365195966 68.28012029548522 42 41 40
9009.163196666676 -13567.965342370826 73.48167887190515 39 37 37
9006.254437793883 -13566.83893139226 72.8606938693286 39 37 38
8966.575298780399 -13556.606289231364 63.99679334539234 41 40 43
8967.459307455925 -13555.89379550243 64.2662548812115 37 38 39
8968.4704416216 -13555.197113985043 64.56541390888994 53 50 53
8961.730567989096 -13551.942237325982 63.17589074615905 60 50 49
8964.529118965807 -13551.459282691747 63.89326208585428 66 60 60
8966.870045094876 -13550.923732690107 64.5033976882022 72 71 74
8966.175081959844 -13550.022421611166 64.40341913996234 49 50 51
8964.783346210112 -13549.03555304292 64.14058427146941 43 44 45
8965.416343248928 -13548.294621656207 64.35119448328979 43 43 47
8971.61007831261 -13548.236355539037 65.86152427644485 44 44 48
8959.086913187317 -13545.878915467632 62.997231457348555 45 46 50
8956.99728873609 -13544.799223908045 62.57182501874418 45 46 50
8957.089743297316 -13543.988276633578 62.65637326779135 45 46 47
8957.842123206361 -13543.259575542583 62.89507268426154 45 46 47
8960.115214805073 -13542.721784547251 63.48888734221131 47 45 48
8957.602674919925 -13541.585042115017 62.96502501950075 46 45 49
8956.676647804767 -13540.645801113686 62.81177151868628 38 42 45
8959.508120628096 -13540.181193459532 63.53574280027397 39 42 46
8959.07476917163 -13539.304408344733 63.49749214376943 42 42 44
8956.552707119952 -13538.160678816037 62.97184950909719 44 45 45
8954.70594146858 -13537.100864864726 62.60396739878101 43 45 46
8947.574898533749 -13535.359930174658 61.00346282157363 59 59 58
8957.219102775325 -13535.776381584637 63.31636319499693 53 51 50
8956.876282553916 -13534.908705746664 63.2994259872735 46 42 42
8956.241191437515 -13534.002610278698 63.2143701975751 41 37 37
8927.745858205499 -13526.107797539962 56.89062780344624 43 40 38
8925.593549986022 -13524.983343191027 56.45340733588952 48 46 46
8921.648786277927 -13521.092797601776 55.79210765978278 48 46 40
8917.578729258334 -13510.412863664607 55.62000593794392 44 39 41
8920.218014088185 -13509.940909496665 56.297813249603664 37 33 34
8914.256204641437 -13508.252106094518 54.97759187940491 30 30 26
8914.524393046162 -13507.443625977554 55.104677100919844 28 29 26
8929.48906199969 -13507.89388108401 58.70854380828181 25 25 27
8925.885389203684 -13506.536501024802 57.93628419869453 26 26 28
8924.734358918626 -13505.529215818837 57.733534246936934 35 33 34
8921.716221850002 -13504.25051854728 57.097612351521505 36 33 31
8920.803216177883 -13503.274439004554 56.95034435198188 54 44 28
8920.825839355959 -13502.433688609317 57.020195773045124 58 45 26
8920.03322862481 -13501.473695745897 56.900967872969474 60 53 27
8920.428830641407 -13500.687117174271 57.057354558752124 44 40 30
8918.54731311256 -13499.565719573582 56.685736912594784 38 40 37
8918.242185296462 -13498.675151298146 56.67971597082137 43 42 41
8918.064369365344 -13497.803054615668 56.703234289462 35 35 35
8918.429539419267 -13497.011403566348 56.85261036238516 31 30 30
8919.15855551706 -13496.274282979894 57.08627381212609 29 29 30
8916.906381898023 -13495.091730282838 56.62922012647188 32 33 34
8921.788288642669 -13494.97781313892 57.82486732493829 32 33 29
8944.529799911885 -13497.558397798926 63.15644617806287 35 35 33
8949.882758945267 -13497.533857521588 64.45977844155942 31 31 28
8977.808135992296 -13500.936266876019 70.98879742755828 28 28 26
8971.817988542703 -13499.208088444791 69.66470006434551 28 28 28
8971.922511518429 -13498.403822459553 69.75167109590676 30 30 29
8969.975912966174 -13497.28561438655 69.3639863073593 35 33 32
8970.118076579902 -13496.486150718278 69.459741260347 39 39 38
8971.781085674756 -13495.921026225886 69.90731991841267 32 31 29
8972.388235611623 -13495.194276007676 70.11056054972639 34 33 30
8974.946015246738 -13494.770450624635 70.76486789001616 33 29 29
8973.687070567086 -13493.755453900334 70.5364711730258 34 32 33
8963.187351605968 -13491.297397924141 68.17183581741678 41 39 39
8961.919243742645 -13487.7958869233 68.131529251403 44 43 38
8955.06979777207 -13483.395195504663 66.80306673290583 66 56 45
8952.692988167457 -13482.18397388051 66.31790487744043 72 59 52
8955.137428923294 -13481.7462695532 66.94571866387753 74 59 53
8950.870215695997 -13480.227383232988 66.02449553092818 72 58 50
8948.133368785524 -13478.952013186417 65.45670846860318 73 61 55
8950.821963649536 -13478.555066081914 66.14076338182306 82 72 66
8958.79149346086 -13479.021021934948 68.04271452283477 88 77 71
8961.573285830029 -13478.64703119175 68.74767127279821 83 78 70
8948.392157852577 -13467.316763395951 66.41019015817203 120 112 106
8943.016113453441 -13465.571704473887 65.23669044382345 128 120 114
8934.464347801963 -13463.28194548614 63.33277551714431 124 114 109
8928.487225953906 -13461.422152485595 62.02191883007405 116 110 103
8923.999726227137 -13459.81080715459 61.05421471156141 117 107 101
8918.588935938136 -13458.036778427664 59.8744846511803 119 111 103
8924.889516131485 -13458.269280407372 61.38853607101679 115 106 100
8919.81640681909 -13456.548345085912 60.28684192079767 130 123 118
8888.11893934056 -13440.699383559604 53.79338230180574 145 142 144
8886.857297941015 -13439.607658089903 53.57020276039091 142 141 141
8894.108416312953 -13440.040163814683 55.30004827702504 144 142 142
8890.126243029286 -13438.461076061976 54.45273414271487 148 146 142
8888.232217406769 -13437.25423894354 54.08461497607858 149 147 145
8884.919528908636 -13435.789090988188 53.391350344245055 126 123 121
8882.235069694645 -13434.43440033386 52.84237139997786 123 119 117
8881.754772896795 -13433.47742103171 52.79884508764596 137 135 134
8880.837353541217 -13432.440238991685 52.655180787727915 137 134 135
8883.161386792395 -13431.994184940666 53.25435923299386 135 134 134
8882.382412552917 -13424.01924358242 53.67537139468889 136 134 133
8882.837350964179 -13423.233844330844 53.846094151147504 134 132 132
8879.873919284075 -13421.805730409174 53.23490902549629 133 132 130
8881.496830629427 -13421.239653946086 53.672811663884794 132 131 131
8878.548106838067 -13419.810533377544 53.06527948587423 122 120 122
8879.793994948446 -13419.17373524034 53.416930280447936 113 109 108
8881.230095704954 -13418.574239831087 53.81197193206721 124 122 122
8889.498575539905 -13416.674419130792 55.96768288229743 122 121 122
8880.022820378139 -13411.3622357262 54.07045685814511 125 123 124
8878.583794973187 -13410.209013145439 53.80885730056567 108 107 106
8881.152264260092 -13409.835996695358 54.461874674676466 103 100 97
8880.14287867534 -13408.765741279221 54.29838225264114 113 112 112
8990.36861963771 -13418.851608498077 80.32536755639796 90 89 90
8994.567863355594 -13418.884161833768 81.34382943277771 99 96 98
8993.963171699474 -13417.94314370029 81.26883758476369 69 68 69
8994.122035530643 -13417.15720935111 81.3676172923279 90 90 90
9011.020986433428 -13418.984774624008 85.33634258542172 57 56 56
8974.394407589089 -13402.35954310509 77.70389399108348 114 108 101
8968.892143259889 -13400.36937462749 76.51846738662276 121 117 109
8964.46836330955 -13398.601709025832 75.57822009111489 122 120 116
8959.742109561124 -13396.76543064122 74.56968458877706 133 131 130
8955.232439666559 -13394.970371716447 73.61065173419216 134 131 131
8949.892821685591 -13392.99397541466 72.46371487942889 130 128 128
8936.013747281671 -13388.340289683463 69.44551742263732 132 129 130
8930.488192785253 -13386.306185241569 68.25779118938455 131 128 130
8889.191609775462 -13366.9733908314 59.697171115642185 136 134 133
8886.810388267158 -13365.573643992755 59.225366336215316 136 135 134
8884.050507681315 -13364.087572989138 58.66810620967084 135 134 133
8880.879090885815 -13362.507313335698 58.01799933453974 133 131 132
8891.305082342771 -13342.972166147241 62.04807078519587 142 141 140
8891.631169504364 -13342.173593649733 62.188474482809504 142 140 139
9074.516200572496 -13782.206427671774 72.19739732291801 104 104 109
9076.008079981857 -13781.437512170392 72.61966647423303 73 61 53
9079.32136030447 -13780.63748802439 73.4880527197508 71 61 46
9084.14974366896 -13779.814256335887 74.72733009960707 74 63 48
9072.95720845874 -13779.2657240909 72.04251002209925 71 60 47
9047.974857154833 -13775.913648078273 66.21258455783786 72 60 50
9041.857118263519 -13775.244501236513 64.77333403873507 74 63 53
9052.739708167408 -13774.339187155007 67.49384206411297 70 61 48
9051.441161594808 -13773.603344911566 67.2337656905384 70 60 47
9050.066565540586 -13772.867149828193 66.95518879358029 72 60 49
9048.876007271954 -13772.12734053697 66.72172442917955 75 63 54
9047.464571422202 -13771.38889525482 66.43434456618206 75 62 53
9047.284777264817 -13770.635269859455 66.44818374975753 75 61 52
9048.651204309852 -13769.864852399895 66.84000452016062 86 72 61
9048.058177272887 -13769.115686639996 66.75282898734098 83 72 56
9048.480339718575 -13768.355981653873 66.91378449730998 83 68 57
9049.73633927914 -13767.588865338717 67.27844994657985 76 63 54
9049.985226827594 -13766.831725034028 67.39699529995269 69 59 49
9048.393973446156 -13766.090060665802 67.06605370932785 66 56 47
9048.173067061867 -13765.336049162383 67.06990648231894 64 54 43
9047.588085500101 -13764.58443374926 66.9848783866941 58 51 44
9047.900762401254 -13763.825990113291 67.11906406982017 57 51 47
9052.3930843009 -13763.040912683096 68.27355042336585 61 52 47
9056.837059954474 -13762.260312995399 69.41591596849527 75 72 70
9058.769473270424 -13761.497606609124 69.94503502802729 67 61 57
9058.514510034714 -13760.747592705648 69.94028496197852 62 54 44
9057.241216112528 -13760.00186434012 69.68711689579382 63 52 44
9058.1778791585 -13759.24590065812 69.97313115832178 73 62 53
9040.591297108549 -13758.556927722597 65.74130683439292 75 69 63
9042.891504171579 -13757.789557828475 66.36038612149717 80 76 74
9042.109496099334 -13757.032376877118 66.22778324045416 80 76 76
9041.156100219956 -13756.274740617155 66.05346092954586 80 78 76
9040.261085972883 -13755.516020523926 65.89344470724939 83 81 80
9040.318359262837 -13754.755231570745 65.9655872176208 83 81 82
9041.361510678136 -13753.99370847741 66.27796986137723 87 83 83
9041.235451269931 -13753.233383109724 66.30541259269434 87 85 84
9039.515070644375 -13752.472487904686 65.94448333321273 87 83 82
9039.328727138112 -13751.710962220292 65.9573311932078 87 84 83
9037.532325973742 -13750.947273133957 65.5780951658356 89 87 88
9035.530744526031 -13750.181453789883 65.1490351456816 92 90 90
9036.421611141037 -13749.419827522226 65.4243253852796 87 86 85
9034.285404367189 -13748.651062639941 64.96269263971989 90 88 89
9033.49678743067 -13747.884345424696 64.82920906407973 92 91 89
9033.090108730607 -13747.118158615916 64.78873439973681 89 88 88
9032.859267665732 -13746.352214966202 64.79107947838644 77 79 79
9032.378903863017 -13745.584844366602 64.7327438668159 67 67 72
9032.619725863133 -13744.820537067126 64.84987242700903 61 64 68
9033.945094333792 -13744.06231098351 65.23075786249174 60 64 68
9033.804079683974 -13743.296548729011 65.25497297492194 61 65 68
9032.52866675349 -13742.523286611175 65.0033945999366 59 63 66
9031.693680286853 -13741.751767379692 64.85898155932126 58 61 65
9030.02608311279 -13740.973231381644 64.51226090259517 58 61 66
9029.409359812837 -13740.20127705835 64.42105537666657 65 65 68
9029.548235185062 -13739.43494761791 64.51350191370436 76 75 78
9029.440296085158 -13738.666496976042 64.54598066036321 88 86 84
9029.25158582257 -13737.897113358576 64.5588529388277 89 85 81
9027.626185334662 -13737.113448962413 64.22280467330866 85 78 74
9026.040518704234 -13736.328560749229 63.89653014988529 82 73 69
9024.033090184208 -13735.537561479996 63.4679715398186 78 71 63
9025.286488448406 -13734.781054028837 63.83119182530389 78 69 64
9025.957765329193 -13734.018870289114 64.05302728273766 76 67 56
9026.691108399913 -13733.25800010499 64.28988311144947 79 70 59
9029.852490634305 -13732.528392705635 65.11587741249777 76 67 54
9029.588048923471 -13731.756850611415 65.11046475334469 74 64 55
9028.486247122402 -13730.973608470931 64.9019456155522 73 63 55
9026.700592077377 -13730.179624467854 64.52764472768327 72 63 54
9030.348801888593 -13729.462807422904 65.47126383580304 71 63 52
9027.80565449923 -13728.6564790954 64.91336348017559 74 65 56
9027.150292166178 -13727.876873303723 64.81332976892013 75 64 55
9024.09143641697 -13727.058196935192 64.13073471176291 73 63 53
9024.58923469389 -13726.294987754956 64.31038497703442 71 63 51
9023.05433052268 -13725.497786210264 63.99741921964114 66 57 46
9026.656382785814 -13724.78839247629 64.92922544627812 51 45 40
9027.891894140059 -13724.040063748971 65.2874624898313 54 48 41
9028.644810166918 -13723.283979166503 65.5287207393166 69 63 49
9029.631777264023 -13722.532939949146 65.8266136466744 68 62 48
9028.900856752725 -13721.749598733999 65.70845782419447 71 64 51
9028.44578051172 -13720.970935466223 65.65714660566695 74 68 53
9027.749394924173 -13720.18686737499 65.54745992930388 73 67 51
9028.219034945165 -13719.426235241097 65.72005304919705 74 67 51
9027.973325941117 -13718.650793711584 65.71950238512618 74 65 50
9025.117442862542 -13717.818408396208 65.0874049621914 75 68 52
9027.481892388805 -13717.098963306891 65.71846972825954 74 67 50
9025.6993254103 -13716.287762668395 65.34623799210186 74 68 51
9023.592250835098 -13715.467270637515 64.8956589392665 74 66 56
9023.682915223326 -13714.696566201172 64.97669472733139 74 65 54
9023.393545319279 -13713.916713902448 64.96584456198275 75 65 56
9021.319044876682 -13713.092652855341 64.52347434123429 82 69 58
9022.671396449261 -13712.352344248957 64.90956309159657 81 70 60
9019.58227493108 -13711.499896034575 64.22217761134085 71 64 52
9020.592933206302 -13710.751004172345 64.52567802655314 66 59 52
9018.155935743729 -13709.911709809374 63.99615980918239 69 62 57
9017.623186892792 -13709.121334384745 63.926821456845325 75 69 65
9017.50594131113 -13708.341767189882 63.95788317265784 67 64 61
9019.555968410546 -13707.622504422376 64.51233301370694 60 57 54
9020.86194271346 -13706.883997128478 64.88698535452126 53 51 51
9021.685154707475 -13706.132720803635 65.1450016558511 47 48 48
9022.530231447536 -13705.382793324316 65.40824157601043 47 49 52
9021.894327545146 -13704.589416770392 65.31400167746561 46 48 51
9022.940835573803 -13703.846341498558 65.62579108297312 43 44 45
9022.219624331587 -13703.049763544635 65.51101309434627 35 38 41
9022.073763169676 -13702.270402657727 65.53508757656759 30 35 36
9023.613693614758 -13701.544337568737 65.96578569732029 46 46 46
9024.149932099983 -13700.787322934993 66.1543271427731 52 54 52
9025.287404585037 -13700.050403862237 66.48780685073798 69 71 67
9025.89813660174 -13699.29701476753 66.69421943803698 85 85 84
9028.206980897148 -13698.601293081505 67.30992291539177 100 100 99
9028.429554874892 -13697.836474058528 67.42264495123383 114 114 114
9026.043096119047 -13696.981458681346 66.90664162670684 125 124 125
9024.124543251475 -13696.140497774542 66.50355663736606 114 118 119
9023.271458805475 -13695.335525627144 66.3572931507653 51 54 56
9024.338196286359 -13694.598882829283 66.67351895363662 45 44 45
9024.786643065361 -13693.84058976339 66.8407699775 32 31 33
9024.510613832495 -13693.055825963582 66.83354558408736 31 25 29
9023.65879611801 -13692.24912450817 66.68772297123445 42 36 41
9023.763877633102 -13691.477866241365 66.77231348341893 42 38 42
9023.891234742274 -13690.707484098366 66.8622638634113 41 36 38
9021.908509587123 -13689.854979423555 66.4444278690989 40 36 37
9021.116602809343 -13689.047430386401 66.31326585092748 35 33 34
9019.871799728486 -13688.220969844022 66.07321369182957 33 33 35
9018.997678729043 -13687.408200206803 65.92242158224903 36 32 34
9018.183566229814 -13686.596961498279 65.78613191459691 50 41 41
9018.475937645058 -13685.83059974796 65.91597630667349 43 42 43
9018.950611656237 -13685.072060655035 66.08963574215815 35 33 35
9018.658511961223 -13681.167110468861 66.31714526953513 43 40 38
9026.541736190124 -13680.740703854888 68.27030509810176 48 43 40
9025.74971584178 -13679.929833173961 68.13936946901903 40 37 37
9024.969691460816 -13679.118667563229 68.01137890834019 34 31 34
9027.163894582787 -13678.443908718029 68.59754964301773 40 36 36
9005.408450098781 -13675.083346068397 63.55442657229534 43 39 38
9044.824833766248 -13674.658363399229 73.18972503484649 45 42 39
9043.263047474047 -13673.814016148688 72.8738161002523 43 41 38
9041.697983702396 -13672.96792191245 72.5572423107516 42 41 38
9040.129524019607 -13672.120069733439 72.23997565155062 40 39 38
9041.398424557361 -13671.415194887451 72.60302352272646 43 43 41
9041.224651264249 -13670.637259857467 72.62018887088408 43 41 38
9040.59922509017 -13669.835629710164 72.5291328831574 45 41 39
9037.548228527243 -13668.906228800275 71.85692133976983 47 43 39
9034.267166043463 -13667.96164486447 71.12982140245859 48 43 39
9018.464632772095 -13666.345703506648 67.40353458154127 48 39 40
9015.54541965255 -13665.408092667158 66.76405664328723 51 45 43
9013.99571522165 -13664.54198127194 66.45275578701333 48 44 40
9011.714470843257 -13663.63420519086 65.96642068358685 51 45 40
9008.28144350294 -13662.660474680799 65.20452768777004 52 45 41
9016.417132525099 -13662.328488748333 67.21197228918449 51 47 42
9012.3886629813 -13661.320059517015 66.30766898416131 55 49 45
9007.938194001224 -13660.283727233103 65.3026904925091 48 44 40
9005.065255145746 -13659.333275579165 64.67546823117097 46 41 39
9006.213930595984 -13658.61198928524 65.01048157376846 48 46 37
9007.238625686345 -13657.884514701664 65.31576358817561 49 48 40
9015.382554353695 -13657.575532333027 67.32345612879791 42 40 39
9026.055758178218 -13657.423894467724 69.93530727574068 32 33 34
9031.52690335077 -13656.972315913321 71.3027510423963 32 32 34
9019.083770801832 -13654.667946030137 68.44755107340023 39 36 37
9017.542871480886 -13653.792471473791 68.13911150314061 35 33 33
8992.62373431564 -13651.476523885907 62.2453377252969 36 33 33
9010.304587284985 -13651.778985171843 66.52969129132671 35 33 30
9008.262645684259 -13650.865477881029 66.1020945418539 39 37 33
9009.067098612437 -13650.12922903833 66.35439129194478 42 38 37
9009.65762335948 -13649.380093734619 66.55555554156322 41 37 36
9011.856775305201 -13648.734334599685 67.14071387262061 45 39 38
9011.83579284329 -13647.947542048534 67.19578026987317 44 40 39
9011.841905323075 -13647.162405699344 67.2573209809979 34 31 32
9011.672466475668 -13646.365709954409 67.27697722899336 37 34 35
9010.833872282321 -13645.52467636982 67.13700209949934 31 28 32
9012.0712275595 -13644.820539568598 67.49230832525973 41 35 35
9011.582951349807 -13644.002144432765 67.4359476963399 43 36 34
9013.892529932267 -13643.37160172476 68.0468448159333 39 34 34
9014.752047364951 -13642.644859872124 68.31182947668647 48 44 45
9016.223373237563 -13641.960655440716 68.7226121143967 45 43 43
9017.144557977424 -13641.239946228496 69.00215902719457 48 45 46
9025.07867333183 -13641.005841325617 70.95300888014042 58 56 57
9022.522906814413 -13640.047601188293 70.40365325055684 53 51 51
9020.114036990171 -13639.097126926472 69.88949126500002 43 41 41
9013.446358614561 -13637.843054921203 68.3610003655293 46 42 41
9009.491962871338 -13636.775653520852 67.47925376389875 39 35 34
9005.474725426782 -13635.699841971844 66.58284064408815 39 38 37
9001.797861080122 -13634.644628939091 65.76777523316717 34 32 33
8997.628837602371 -13633.550020293307 64.83582103541714 38 32 32
8996.09891657948 -13632.644315369926 64.53236823194521 52 45 42
8993.126189149987 -13631.630825949822 63.88565651387817 54 47 44
8996.183730313027 -13631.061250322193 64.67411248133595 55 49 46
8992.879903965973 -13630.020063061094 63.948855466687945 50 41 38
8995.664599321122 -13629.432674791435 64.6722019427924 61 50 42
8993.284915120084 -13627.661283725416 64.22793853614684 101 90 60
8993.179508364436 -13626.856720197768 64.26379633653731 83 73 54
8989.087261919532 -13625.744954728647 63.35185914711037 70 61 50
8986.356210123866 -13624.734625331774 62.76378381811713 52 44 41
8983.442781738586 -13623.707347365436 62.132573419178094 44 40 38
8980.570947131402 -13622.680428124353 61.511468842838966 38 35 32
9026.33189476586 -13625.489877429958 72.44507078411135 33 32 30
9032.881764327694 -13625.229114027215 74.06072355380026 39 35 34
9034.570008700239 -13624.586110450171 74.5212015655595 38 36 34
9035.463069653973 -13623.880730352112 74.79272438212787 33 30 31
9017.435727059494 -13621.645848827335 70.57175965011574 44 39 38
9016.977735675247 -13620.822943575437 70.52312210267378 45 40 37
9015.713530489942 -13619.933524110764 70.28315856311507 45 40 38
9013.262533203511 -13618.945084445786 69.76163710279091 44 38 38
9013.955217924287 -13618.21453945837 69.98626812631771 44 39 38
9010.99541557738 -13617.18032217726 69.34429065516811 45 40 36
8983.171396046846 -13611.65137252559 62.98856474132063 38 36 36
8983.885177924838 -13610.909563611265 63.21919707475319 44 40 37
8984.96972085256 -13610.200325575079 63.537664651765546 43 39 37
8985.857437339962 -13609.474990622695 63.809411683252364 49 44 41
8980.082261038533 -13608.169558711956 62.502284369233905 55 49 45
8982.418515207355 -13607.569531544968 63.1173463159515 62 58 49
8982.790949244712 -13606.798574299457 63.267047406402725 54 49 42
8989.717762053639 -13606.608843921154 64.9690997566378 53 49 40
8994.215935021484 -13606.20930783467 66.09552324316346 54 48 41
8993.88246775223 -13605.381109215228 66.07762767645185 54 49 42
9003.919055303433 -13605.486751795594 68.5147053271165 48 45 38
9012.147653656166 -13605.43829045976 70.52309938375001 73 73 72
9016.833131501398 -13605.075090217326 71.6923757456765 53 55 54
9020.736747253653 -13604.644778016613 72.67630450501605 68 68 68
9023.601259053241 -13604.12254127192 73.4141130675096 58 56 56
9025.939285360506 -13603.554293567737 74.02717608168729 45 45 45
9027.871585056524 -13602.95049943119 74.54411297460126 59 58 59
9029.135805493352 -13602.286040997158 74.90292938864468 95 98 100
9031.715942589559 -13601.746390934924 75.57278919681602 104 107 108
9034.488700567112 -13601.227359712764 76.28799911196548 109 111 113
9034.987057861743 -13600.494993756407 76.4654265075886 109 113 115
9035.759098755578 -13599.789147849891 76.70750151037126 108 112 113
9036.644482645599 -13599.094841422875 76.9763070312918 98 103 103
9039.079042576821 -13598.550659744917 77.61104729068028 100 103 104
9038.216362716355 -13597.689292785757 77.46675951332979 95 99 102
9034.687162970698 -13596.567350292738 76.6927726420133 80 85 87
9032.418199679647 -13595.565223912892 76.21664594296264 75 79 82
9029.905197058959 -13594.536808311852 75.68307604955724 75 78 81
9026.313350283113 -13593.39923987433 74.89502199059962 73 77 78
9022.473132796744 -13592.233427551213 74.04861901067237 64 68 71
9046.849101239248 -13593.87996351671 79.86126392170321 62 65 69
9047.8756748583 -13593.20834287461 80.16273157381723 67 68 72
9050.303831045328 -13592.678889676961 80.7947852092951 69 69 74
9048.644287680147 -13591.737772365957 80.4624617732893 68 70 74
9048.033772054423 -13590.901699705779 80.377672712696 65 68 70
9006.466848350032 -13577.927453354145 71.24329718712848 67 67 68
9015.527362170515 -13578.106832794243 73.43693964336393 75 79 80
9021.813096410817 -13577.995053991583 74.97684743508 70 75 76
9024.501997977313 -13577.4988136714 75.6698847070936 50 45 42
9024.791487088154 -13576.743440635732 75.79818642189203 54 47 41
9025.290191221682 -13576.011184510908 75.9756899154162 61 54 43
9007.011863907965 -13573.21328731489 71.73664172410622 64 58 46
9019.109993490607 -13573.75462766664 74.64263677719964 63 57 45
9019.343482472466 -13572.990641142482 74.75795430043762 63 57 45
9011.714869799403 -13571.350231321749 73.0249055928183 61 56 43
9011.2846642998 -13568.12621198358 73.16668782435892 39 37 38
9007.78255791603 -13566.932989461364 72.40475344758994 39 39 39
8967.071779371783 -13561.478891085282 62.90377335932145 42 39 39
8983.903051536461 -13553.706050721254 67.59879194269548 69 70 69
8979.365049598844 -13552.349239925934 66.59700025094358 52 52 54
8968.989456944364 -13550.280079476097 64.22751336500643 50 52 53
8967.340404290251 -13549.263083880593 63.90354931238924 42 45 48
8964.53358175086 -13548.102874790413 63.30847800648033 42 43 47
8963.43787630715 -13547.14982354237 63.11443202805218 43 42 47
8958.790897654435 -13545.758067555491 62.08876374889534 42 44 48
8956.988623375777 -13544.713564014894 61.729575126998 41 43 46
8954.515576626707 -13543.583910669597 61.213482680967495 44 45 47
8961.42612890092 -13543.621652458221 62.89417524099755 42 43 47
8957.944238016726 -13542.365305230434 62.14199397942123 43 41 48
8961.762364011998 -13542.022734660615 63.098384382412625 42 41 46
8959.777674769752 -13540.951832460178 62.696774136807356 38 41 45
8960.087950064582 -13540.169515838357 62.83220066772878 41 41 45
8959.22221937725 -13539.237921388063 62.6925410206317 41 42 43
8957.092183707291 -13538.14405538421 62.257277234933284 41 42 42
8955.947121504018 -13537.174191835971 62.05249264231324 44 45 47
8956.06245137647 -13536.365191865765 62.14246659837573 43 44 44
8947.16232746934 -13529.42138164328 60.505280045848885 49 43 40
8939.30164998664 -13527.55097444964 58.733286153192076 47 43 41
8922.062787685116 -13511.796622505397 55.7384581948061 41 37 39
8921.611555017791 -13510.890429229057 55.697837563669964 36 34 34
8920.526464620347 -13509.894121377 55.509686173530916 35 34 33
8918.853795050363 -13508.813328915145 55.18484800007041 28 28 27
8920.145002802105 -13508.152595019677 55.54995430967395 26 26 27
8923.615622407611 -13507.804261206078 56.422124476183946 24 24 26
8928.778399135626 -13507.701717494669 57.68774604929547 24 24 26
8925.137430290803 -13506.338325953984 56.90499685241868 26 26 28
8924.500077488878 -13505.404613048315 56.821137665386416 29 27 29
8922.909161753458 -13504.332142398096 56.51558022401737 30 29 28
8921.888129148683 -13503.340798637639 56.34265519506509 42 39 27
8922.268203463103 -13502.55256962947 56.49553868329767 40 35 24
8921.247332738782 -13501.559752579658 56.32276577767839 43 38 26
8921.56254677651 -13500.761885997355 56.46058485376396 50 43 31
8921.672060659133 -13499.93395610767 56.55058975743449 41 40 36
8919.887378632538 -13498.826248354366 56.200521244732144 39 40 38
8920.718369257856 -13498.104348954545 56.458185701186785 36 37 36
8919.24117632662 -13497.03996111526 56.179715693549866 30 32 33
8919.85084482699 -13496.285363032874 56.38596165235441 31 32 34
8922.634846243656 -13495.85672447175 57.096997014120745 33 33 34
8935.578230237961 -13496.956364857404 60.16621481110384 34 34 35
8942.903382025386 -13497.22219253725 61.9304686673555 34 34 33
8949.21817835225 -13497.34241659878 63.45971183325987 34 34 34
8978.878068610038 -13501.008926145869 70.40515037999681 31 31 30
8973.699488428192 -13499.404312983233 69.26625148062935 32 31 32
8971.72506163553 -13498.283563859053 68.87095398618226 39 37 36
8968.978794703535 -13497.042600553876 68.29681203285855 37 36 35
8975.02174475175 -13497.148980943775 69.76088564837237 31 29 28
8972.44325553953 -13495.932618173872 69.22573685927708 31 27 24
8975.448471768255 -13495.576852302313 69.98509184484459 28 26 25
8977.42351755956 -13495.064189343813 70.50547251472257 26 26 27
8966.699146854222 -13491.754145912588 68.14592435980143 34 33 33
8950.074450420214 -13486.664043446644 64.48506153707328 43 43 43
8938.51619239539 -13484.00535796287 61.87253861992787 43 43 41
8953.807772557968 -13483.100595989292 65.66714209288905 64 53 50
8955.736951118044 -13482.57964835982 66.17698204272253 65 54 47
8954.591725751989 -13481.565539538953 65.9755418223414 72 60 55
8956.621651686826 -13481.062972642154 66.50852043259621 80 73 70
8954.496794784904 -13479.88930972774 66.08062162942133 86 81 82
8956.517243390761 -13479.386980510277 66.61127315191264 99 97 100
8961.361992202836 -13479.346831025267 67.79464310496846 106 107 109
8963.407617450357 -13478.853817304573 68.33071577146325 113 114 116
8957.928588973033 -13470.492411658634 67.63541711714436 96 98 100
8951.57814301338 -13468.593047584212 66.23356727902443 102 103 103
8946.773633678968 -13466.948418729742 65.18886179230586 101 100 98
8940.122513853838 -13464.986172475692 63.71857003557351 107 103 103
8933.409514647316 -13463.006757907988 62.23451607809658 107 103 101
8926.350330573026 -13460.961644936844 60.67114801100584 106 103 100
8925.478292982285 -13458.273484319257 60.664303724679364 105 100 98
8920.7737794676 -13456.61596764388 59.64494539280145 105 103 101
8918.937886560609 -13455.449526106468 59.286892943291775 114 111 109
8899.737908969073 -13442.670256525196 55.58673869706523 146 142 138
8897.403777221596 -13441.392360023905 55.11582779198595 149 145 143
8901.790376274641 -13441.316871145531 56.19028422954121 150 148 147
8902.072368845666 -13440.507777542243 56.32086844974679 145 145 143
8897.416204861172 -13438.808733523185 55.316465484382285 145 143 141
8892.690046420705 -13437.0923378291 54.29633731245988 130 130 128
8894.767779279962 -13436.60435620306 54.8398472947297 146 145 146
8894.11166154239 -13435.621484112591 54.75517647701719 142 141 140
8893.454919977925 -13434.637756639419 54.67041910423313 143 143 140
8892.69634132828 -13433.634677840753 54.562331827259285 142 141 139
8889.29305965734 -13426.077279446477 54.311240863308385 137 136 138
8885.146311864086 -13424.433694495405 53.42670230426663 139 138 140
8886.737500732701 -13423.862835036427 53.85801724521245 136 135 135
8885.36482318249 -13422.735715900053 53.60980777208211 134 132 132
8885.20573367549 -13421.836119306783 53.63985579696397 130 129 130
8882.613491537044 -13420.47598590154 53.11235283103278 117 117 119
8884.266628363348 -13419.918404191656 53.55774425143585 114 113 113
8885.72002923378 -13419.32438629468 53.95726195699417 125 123 124
9071.937664919566 -13436.834556389143 97.98515019223862 117 117 117
8989.438958855764 -13418.563336277273 79.28393489513164 83 81 83
8992.177984938387 -13418.299039104631 79.97144343089015 84 84 81
8989.492000012642 -13416.93299260676 79.42155469913533 62 60 57
8993.447205053128 -13416.919456865087 80.38617450455479 90 88 88
8896.587249746297 -13385.007114371683 59.22955658757461 73 61 53
8900.752041252463 -13385.01984789334 60.24322755498397 76 64 56
8925.46353400181 -13389.39326450803 65.92904749526173 106 95 86
8935.610634440316 -13390.695791697864 68.30150444199143 103 95 91
8930.901210386688 -13388.843426989182 67.29585283604854 107 96 92
8929.650464447683 -13387.724809772366 67.07669860672391 104 97 93
8926.824929263375 -13386.26780457545 66.49976904813798 111 104 102
8920.953915868025 -13384.15455349852 65.23107994696325 114 111 106
8940.910423585863 -13387.588937480288 69.83029183608357 119 115 110
8945.20156531259 -13387.666863279492 70.86975853692105 123 119 116
8950.702221220903 -13385.483337279196 72.37686074006 138 135 132
8947.559401522049 -13383.955657994986 71.72803847129511 136 134 132
8943.466511717794 -13382.2171462494 70.86388155858157 140 137 134
8936.91410130856 -13379.935785859581 69.44204543618679 141 136 134
8893.361097379706 -13367.78259156513 59.761013682886365 142 139 136
8892.548472635826 -13366.731339121334 59.643444044071174 140 139 136
8890.215650568369 -13365.342440927436 59.18134223118364 137 136 135
8886.205330116032 -13363.578697331262 58.33923109979915 140 137 138
8885.036396548276 -13351.922695304756 58.94596571648636 141 139 140
8887.424382320465 -13351.592248154997 59.55301177709558 142 140 140
8915.241278937412 -13346.745376490799 66.70060246233675 140 138 138
8910.59396422237 -13344.78505113158 65.71833963419704 140 139 137
8906.44634547626 -13342.938162682989 64.8491386634665 142 138 138
8907.50917921564 -13342.321975781333 65.15520028775674 140 139 137
8892.137564355184 -13337.803336026016 61.75591010879076 141 138 137
9019.971868893783 -13289.872045849681 96.56551751098647 59 47 42
9075.4863579703 -13782.138090929682 71.66387598465708 109 113 119
9078.07535877881 -13781.34956147408 72.35617351427194 79 67 57
9082.993490462019 -13780.521994155895 73.62004450571266 76 64 49
9083.772841139125 -13779.77064290218 73.8677268682122 85 71 55
9073.415824512904 -13779.207413189743 71.38240978750262 83 69 57
9066.496576685802 -13778.578047002518 69.74137914135542 79 66 54
9060.632328644426 -13777.925282933093 68.3596844214971 83 68 55
9052.85918171151 -13777.296296234743 66.51017006616803 78 66 54
9051.081240645395 -13775.81684996906 66.18921280665492 71 59 49
9048.212516439897 -13775.103435830088 65.54342390703384 71 61 52
9048.470741199244 -13774.344966044515 65.66443256503064 71 63 53
9050.479363004793 -13773.563839583272 66.21448157352826 70 60 51
9050.634802553965 -13772.807824251167 66.31021060689925 65 55 47
9051.94216352816 -13772.037951448088 66.68820699141065 69 58 49
9052.178734724315 -13771.28167808627 66.80376168511548 78 64 54
9052.0599382656 -13770.52950951031 66.83224993847264 78 64 53
9052.301046866321 -13769.773310849054 66.94890659848734 78 65 51
9051.296562258221 -13769.029955997616 66.76050613282567 84 71 57
9051.561413208947 -13768.27323569063 66.8829986689723 79 66 53
9051.951616042481 -13767.51552975149 67.03616756503867 82 67 57
9053.101635940884 -13766.751454967392 67.375310540488 76 65 55
9051.014392027453 -13766.015234694994 66.92204048664027 66 56 47
9051.184176033155 -13765.259311366239 67.02126427119482 61 51 43
9051.248838612652 -13764.504242218654 67.0947604220708 54 48 42
9051.407357072589 -13763.74851125125 67.19121934795422 57 51 47
9055.58030919009 -13762.967196507634 68.26964122935388 59 51 47
9060.98346120814 -13762.182491649974 69.64863985159307 73 69 66
9063.63072601044 -13761.417836991715 70.35333607209591 70 66 66
9065.299523582524 -13760.660478621114 70.81861023064415 63 55 47
9036.403222764919 -13759.279681503984 63.86995199369187 74 64 55
9045.242512028617 -13758.486147829333 66.08845867492138 78 74 68
9051.034060988988 -13757.710276938486 67.56159795898104 81 77 76
9047.623569991143 -13756.206491345252 66.8439612540007 82 79 78
9044.543429534668 -13755.454296561045 66.14952524937132 84 81 80
9044.05471011056 -13754.696084229145 66.08816946816306 84 83 82
9044.245909970354 -13753.93686183313 66.1928734633227 87 84 83
9044.66653763736 -13753.177694036185 66.35358143138278 88 85 85
9044.28401563741 -13752.418632933392 66.31821554403693 84 82 82
9042.285589386363 -13751.657928268274 65.88849911239689 90 88 88
9040.289174936928 -13750.89524428875 65.45942508467272 90 89 88
9039.793707653145 -13750.133123736416 65.39672071823212 92 90 91
9039.125728448105 -13749.370077332032 65.29197333264425 90 88 88
9037.82425805142 -13748.60463844694 65.0327603028008 92 91 91
9037.653086400855 -13747.841410345456 65.0493079620102 93 92 92
9037.54160889151 -13747.078154278868 65.0804303521288 85 84 87
9037.354106665089 -13746.314402380513 65.09303140910893 69 71 76
9036.933965982022 -13745.54933311348 65.04894122092392 62 65 71
9036.524996670385 -13744.78383988912 65.00761060257966 59 62 65
9037.283236526197 -13744.024302086158 65.25076507604254 60 63 67
9037.127022795768 -13743.259937539655 65.2710511372681 60 63 66
9035.459174790041 -13742.48558278332 64.92307908732138 63 63 68
9035.913770744415 -13741.724275698745 65.09224293549622 65 66 70
9034.811048991509 -13740.95178109646 64.88208789873909 69 70 73
9035.005339084963 -13740.188385272366 64.98786526393326 78 75 76
9035.559825432707 -13739.428107340604 65.1813357957969 77 73 70
9035.596207092858 -13738.663697569318 65.24864189313669 78 70 63
9034.692972803143 -13737.890487410528 65.0872406262532 74 69 61
9033.529945049257 -13737.11379119738 64.86268476130653 74 66 56
9032.80221777531 -13736.340376703954 64.74414406029123 76 64 57
9030.93927393045 -13735.55398605523 64.34946493356767 76 66 57
9032.09946555886 -13734.799673830646 64.69034488016658 74 65 55
9032.368315008622 -13734.035957313868 64.81434826090684 77 67 57
9033.292272038634 -13733.280395982081 65.09765385132617 75 66 55
9037.158801885424 -13732.562879522937 66.09639545735239 73 64 53
9036.817464046031 -13731.793707118975 66.07185630492992 69 60 49
9035.921836954647 -13731.016584258074 65.91261116648303 76 67 57
9034.578186734414 -13730.232214304386 65.64454807557394 80 71 61
9033.5769730947 -13729.45146926109 65.45980389011962 77 69 56
9032.361984772862 -13728.666472104083 65.22319780839103 79 68 57
9030.048967100092 -13727.86319214571 64.71993707435614 79 67 58
9028.968049293526 -13727.077334298767 64.5161262043783 73 62 53
9029.742810649668 -13726.320937413 64.76307385973394 69 60 48
9030.5621548907 -13725.565955848857 65.0207969591922 59 54 45
9032.395663193642 -13724.829354484273 65.52469398841106 52 48 42
9033.831431330264 -13724.087301306405 65.93191097738568 72 65 53
9036.062488127005 -13723.36116224141 66.5320582993004 75 67 51
9035.347051600478 -13722.58149098576 66.41699623817031 73 67 50
9035.483387325394 -13721.817530887896 66.50866885288721 71 65 50
9032.197267093687 -13720.985787061616 65.77002886871881 70 63 46
9032.254996777254 -13720.218695556472 65.84275143438963 72 65 47
9029.285921082586 -13719.388693334755 65.18137556747014 76 68 53
9029.883840537976 -13718.631585472202 65.38520674162702 75 68 52
9028.580915691507 -13717.833658880845 65.12812171651375 71 65 47
9033.383902766027 -13717.17002092139 66.3513542131188 69 64 49
9030.08298918946 -13716.327028869824 65.60996257541277 73 65 53
9026.947685436013 -13715.484635559716 64.90895401112456 74 65 56
9027.041285721996 -13714.71551058563 64.99058876414061 73 63 53
9027.512366538574 -13713.955500494272 65.16367778294648 79 69 58
9026.759519500438 -13713.16574911476 65.04025346378279 82 72 58
9027.929041811207 -13712.423410476482 65.38249607324323 82 71 60
9026.359157872557 -13711.612093589918 65.06126416038641 85 72 63
9025.753469413788 -13710.824298586303 64.97361481324575 82 72 59
9025.437331035051 -13710.043520605523 64.95611440372137 73 67 55
9025.04347219971 -13709.260260910889 64.91983047829437 74 66 59
9024.382995141279 -13708.469218123279 64.81905431459658 68 63 58
9020.973050438994 -13707.600607724376 64.05300392413135 64 59 55
9023.309239873503 -13706.892020094447 64.6774748578469 61 56 53
9023.207516672153 -13706.115108446818 64.7120221885196 55 52 49
9023.880849281863 -13705.360796250101 64.93404962198579 50 48 45
9021.754120687086 -13704.523415832278 64.47887229488681 44 44 45
9021.153212323827 -13703.730220719406 64.39280260496233 44 43 45
9020.574431165662 -13702.937050636003 64.31213271747022 39 41 41
9020.655196709095 -13702.163891778198 64.3909425538784 37 41 44
9017.63913410213 -13701.292298441822 63.72127504357249 36 38 42
9017.730552504358 -13700.517991231753 63.8027732361961 34 36 39
9018.741898450704 -13699.773811056266 64.10654242368575 34 34 38
9019.619181777174 -13699.026064971913 64.3778566560377 38 37 41
9021.070710638895 -13698.298431340765 64.78781906925083 32 34 36
9020.80551665464 -13697.51342888461 64.7830781369977 30 33 33
9021.338901144763 -13696.755769679488 64.9711971104728 38 38 38
9024.39440644783 -13696.08716751845 65.76821202643555 44 48 48
9025.290272341244 -13695.344489413472 66.04367530312038 29 31 31
9026.530988808596 -13694.615038115919 66.40231290957341 43 45 46
9026.62841136306 -13693.84487556506 66.4849600615827 40 43 46
9025.802049920196 -13693.040491247293 66.34470774181572 36 34 37
9024.177136492612 -13692.205256537063 66.01187003717624 52 51 52
9023.863836097122 -13691.418246141026 65.99553878842363 51 52 53
9022.93021351985 -13690.606972553718 65.82962832661524 50 51 51
9022.933150578501 -13689.831226471239 65.88963633946719 36 37 38
9021.301141909014 -13688.990890357083 65.55545644245402 29 31 34
9020.246585177369 -13688.171968116672 65.3606080076949 33 35 39
9019.457962572493 -13687.362700252646 65.22994178494723 30 31 35
9018.215713174237 -13686.534041017983 64.99001783631543 34 31 33
9018.112365067833 -13685.751232760502 65.0246191770715 39 36 37
9019.104515053321 -13685.014099274853 65.32316364213669 42 41 40
9021.623815583036 -13682.01082867287 66.16772065433491 43 40 40
9021.15777135546 -13681.212816112013 66.11494233437338 41 38 37
9028.639951131141 -13680.769884082945 67.97535326973667 45 42 38
9028.71995253868 -13679.999324956267 68.05377786458908 34 33 32
9028.663791331901 -13679.222538458896 68.0994382696311 35 32 32
9027.770952347244 -13678.406976548273 67.9438116999299 40 38 36
9034.570503822422 -13677.949428236112 69.63869586774582 38 37 36
9039.55595243011 -13677.412812184988 70.89676265051439 41 40 38
9014.029388240804 -13675.42777312609 64.81691068206764 42 40 38
9008.644031032478 -13674.387014269285 63.581778084505984 41 38 39
9003.42035620841 -13673.348848896323 62.38591732998573 41 39 39
9045.543390598226 -13674.628777148942 72.57120851066341 42 39 36
9044.287661263372 -13673.799778631708 72.32801975810757 41 40 36
9040.411696822965 -13672.838401003914 71.45529445071938 41 40 38
9042.574854397903 -13672.178255635883 72.03382218525094 38 37 36
9042.573884936503 -13671.409757339248 72.09232257931237 43 40 39
9041.310998327046 -13670.576221983574 71.84773334061734 41 38 36
9040.359882397735 -13669.757588167422 71.67811493352936 41 38 37
9037.047398535495 -13668.814136820178 70.94157694617044 45 41 39
9035.11592879667 -13667.94049518615 70.53683788588634 45 40 39
9033.28230736504 -13667.070137642058 70.15573464616774 45 39 38
9028.496050633907 -13666.038843788054 69.06613163759403 46 41 40
9024.787284174903 -13665.061433551673 68.23544825640603 48 43 40
9021.77950418216 -13664.118814100399 67.57323130007939 46 41 38
9017.533126144037 -13663.104689788766 66.61411173392702 46 42 39
9014.799276656755 -13662.170802157496 66.0180995854484 45 42 40
9016.935654708655 -13661.508336840403 66.59026719193571 43 42 40
9012.786402282565 -13660.4910097097 65.65510282194289 44 44 40
9008.996355912119 -13659.490167105134 64.80636826572602 42 42 39
9005.513751681403 -13658.503339132592 64.03161564068517 44 43 37
9008.710207761245 -13657.901900631246 64.85790621861105 49 45 40
9015.956314401894 -13657.54116747165 66.65440420571068 38 36 35
9027.487584326112 -13657.440934160235 69.47709029055699 33 33 34
9030.266577315342 -13656.829556196903 70.20222904350017 33 33 34
9018.58329109825 -13654.56931471487 67.52284593553323 33 33 32
9015.379931771218 -13653.591842568596 66.81554778115891 32 32 31
9013.037393475435 -13652.664217127489 66.31458428727649 33 32 32
9009.530525030888 -13651.661975308065 65.5350863531281 34 33 32
9012.347538108754 -13651.051863593786 66.26940982754147 35 33 30
9011.795968988597 -13650.232037332878 66.19742032715334 40 36 35
9008.748403746215 -13649.253048310982 65.52827071693191 41 37 35
9011.9285254133 -13648.66962858651 66.34919652931144 41 37 35
9013.310708297611 -13647.973253549595 66.73984100884323 41 37 36
9012.94975340893 -13647.16488066758 66.71350905274726 35 31 33
9012.507846287388 -13646.35077820829 66.66785287360243 29 27 30
9011.88809075438 -13645.524440096848 66.5797153448182 29 27 29
9012.979427887787 -13644.81106635024 66.90065749613807 38 34 35
9013.500547592623 -13644.060516309037 67.08523901775285 40 36 34
9014.495402946695 -13643.342308428064 67.3829974180353 44 39 39
9014.707692403214 -13642.571869408897 67.49370712389546 76 73 74
9016.015725158508 -13641.876445390371 67.86617731246062 74 73 76
9016.173436123638 -13641.10302374293 67.96379122750108 75 74 77
9020.167130211845 -13640.59556247652 68.97752157611922 66 66 69
9019.894890183143 -13639.79412401061 68.97231677639043 72 72 75
9017.99215995889 -13638.87774711908 68.57785993178443 66 68 72
9014.14998780493 -13637.822205050556 67.72058110947175 56 54 55
9010.132446418096 -13636.75037174429 66.82173612936654 53 52 54
9007.777771497551 -13635.793851129569 66.32001831625848 50 50 55
9005.366150191327 -13634.830858550104 65.8048933529301 54 55 61
9002.768830865996 -13633.851951041073 65.24565199657964 60 57 58
9001.429191846017 -13632.96248758638 64.98660052070545 61 56 56
8999.478718025612 -13632.026647828872 64.58197602707823 52 47 46
9000.129725294602 -13631.281734652346 64.7978349999155 46 42 39
9001.292403668906 -13630.575554876115 65.13564320434035 48 41 38
9002.269174946225 -13629.856451693433 65.42905533046859 50 40 35
8998.432122466094 -13627.980259588012 64.63574939540162 48 40 34
8996.844635368609 -13627.064600138438 64.31819518369208 45 37 38
8992.719748227852 -13625.951809756423 63.39627523916243 46 39 39
8988.605149927078 -13624.835740564295 62.47711761914182 44 39 37
8986.057761957367 -13623.837877261292 61.931514364773555 40 36 35
