ply
format ascii 1.0
element vertex 735
property float x
property float y
property float z
property uchar diffuse_red
property uchar diffuse_green
property uchar diffuse_blue
end_header
9177.505691145776 -13406.588277182032 78.36790321089752 96 97 97
9174.830599950434 -13405.309203637822 77.72127718808858 94 93 93
9167.842073582233 -13403.227385406752 75.95429847795248 88 78 75
9169.102305517825 -13396.345807330667 76.72058493394783 34 31 35
9165.688728094257 -13394.902098339171 75.88382562761956 29 29 33
9167.913561440908 -13394.53499387007 76.50987972744257 66 47 37
9155.648875201072 -13382.579628529455 73.92097754785185 58 55 56
9154.062239076478 -13381.4621804716 73.5595874326953 61 59 58
9146.448961015403 -13379.13909482204 71.6380490660488 63 61 61
9150.480068406834 -13379.139393960695 72.73132918106417 67 66 66
9162.148967328183 -13380.678392747328 75.80118116705562 69 68 67
9159.785210160133 -13379.403810652053 75.23871668334574 67 66 66
9176.802596296147 -13382.041821445902 79.69136811855628 64 62 63
9177.392186185938 -13381.370983052526 79.89265485696255 68 66 64
9176.891076890022 -13380.47905156586 79.81176532529722 62 62 59
9178.383209378862 -13379.992510741837 80.24646710454955 96 97 98
9179.40205577593 -13379.410817866681 80.55867586914202 72 64 65
9180.220243681768 -13378.789018106452 80.81893695720164 57 47 44
9180.466840722229 -13378.05054232489 80.9313709703207 58 46 41
9181.218728545286 -13377.416308099466 81.17441747572803 105 100 97
9182.208918976603 -13376.832019854408 81.47901439607077 72 73 86
9182.14436128748 -13376.030144778906 81.51096924553104 47 48 58
9182.279173633273 -13375.269457957907 81.59445561769824 42 44 54
9183.137512534338 -13374.659526429114 81.8648741803976 43 45 55
9185.140311812143 -13374.289560487294 82.43088572315625 78 82 90
9182.772826774324 -13373.006030822116 81.8679621169924 94 86 82
9182.52687542342 -13372.165353098308 81.85311375691394 76 56 45
9182.236065330535 -13371.314773657841 81.82670980356349 68 50 43
9181.048249228308 -13370.274183945752 81.56874480764526 86 79 79
9183.533608241802 -13370.010199387863 82.25909651001774 61 61 61
9180.354842692357 -13368.545727423752 81.4873025794563 62 61 63
9183.908440575502 -13368.5114240557 82.45320920821226 56 56 58
9183.558632877292 -13367.647371268142 82.41163530057479 71 71 75
9176.967276484043 -13365.446049109329 80.7597468538996 110 113 114
9177.427364232517 -13364.751155567737 80.92739446062727 120 114 114
9177.478167774838 -13363.968500993413 80.98945143523876 145 143 140
9178.604115820699 -13363.417861163705 81.32879230478343 160 158 156
9174.885073221163 -13361.819520969111 80.41872459579143 123 121 122
9175.024377159512 -13361.054189187824 80.50371568290555 72 67 67
9180.107162149156 -13361.364743111051 81.86308884671935 61 54 51
9189.038340254343 -13362.520815441141 84.21404960231013 67 59 53
9188.641176536525 -13361.646054869916 84.16029252362131 72 64 58
9185.364251537367 -13360.138909004909 83.36450858633683 71 61 57
9196.285978734873 -13361.750915971928 86.22721253368367 70 60 55
9192.201744841035 -13360.066027951472 85.22343803408283 65 55 51
9188.467535332245 -13358.453629674646 84.31012400190548 69 58 54
9185.661214651696 -13357.042442366983 83.63605599142657 69 58 52
9185.570092960144 -13356.231367588165 83.66137375957243 78 68 60
9186.832814721043 -13355.721741197909 84.03527984685988 85 73 63
9186.870843547384 -13354.939765628398 84.0938302366431 93 80 71
9187.464556418134 -13354.282154563974 84.29541925960783 99 86 77
9189.037325369036 -13353.844968982548 84.74894640030601 107 94 83
9189.487728992068 -13353.156702895414 84.91355870627635 91 82 74
9190.275009552626 -13352.544850483622 85.16482364005589 79 72 65
9190.931873064173 -13351.90422736709 85.38249218550509 64 58 55
9190.430426008761 -13351.00134363733 85.3021866404724 59 53 51
9191.48719384662 -13350.452226250063 85.62267085712583 61 54 49
9190.491335170553 -13349.435975406535 85.41526632911611 78 68 63
9187.961633754583 -13348.067641325822 84.81357832090733 90 76 67
9187.690897651133 -13347.214087103035 84.79280224373835 86 75 70
9189.484845056968 -13346.834604316246 85.30275698329302 90 76 69
9189.553262359084 -13346.05943752634 85.3691291954224 83 70 62
9190.673105084266 -13345.527071768744 85.70568696640542 87 75 67
9191.310881993073 -13344.884201912719 85.91831752124564 81 71 64
9192.902249625178 -13344.46330786088 86.37588396383622 78 67 59
9194.066812639172 -13343.944760589004 86.7237181704426 59 50 45
9196.584807229592 -13343.743215108723 87.4190695729731 61 48 43
9197.012586214367 -13343.055489217088 87.57751240559533 56 48 45
9198.344929316005 -13342.58022274845 87.96818137397564 62 56 54
9198.251039022236 -13341.771050566858 87.99263089220143 88 86 85
9199.258453350329 -13341.221151651376 88.29977788374568 89 85 82
9200.249890114585 -13340.66848769151 88.60276207582075 70 69 67
9201.867799638914 -13340.265190220782 89.06644163930804 50 47 48
9199.636780797116 -13338.949780637655 88.54249629441641 55 53 53
9203.24260163156 -13339.020825423295 89.5160681631681 70 68 67
9207.269705066028 -13339.196432912355 90.59744839789293 57 53 52
9220.855767677376 -13341.662881227205 94.13005479155134 54 45 47
9226.169037627214 -13342.161534374187 95.54033608141665 49 38 39
9226.025676954552 -13341.354746372655 95.55122140020848 58 49 50
9226.260324045043 -13340.638701750027 95.65903072997631 38 36 38
9228.790272283135 -13340.477123671955 96.35515874578186 38 36 39
9230.315905949206 -13340.075195058309 96.79372723337262 46 47 51
9250.409189435317 -13606.598180801037 85.05982474659427 87 76 71
9248.306826528036 -13605.807714609016 84.53711124598662 89 79 75
9248.249748014518 -13605.09953366533 84.56520641835796 87 77 73
9237.39763005243 -13601.089147247281 81.86272480763057 86 78 75
9234.367669547877 -13600.241147048437 81.09144791862195 90 82 78
9227.920758992414 -13599.235169268353 79.40122651488456 94 86 83
9228.677771711831 -13598.551752523523 79.64905375121177 95 89 86
9216.257912668249 -13595.084162002322 76.48706100835895 92 85 83
9214.319693632715 -13594.265018623662 76.0107250661648 93 86 83
9196.666157369438 -13582.35347610803 71.946262186426 81 78 71
9198.288107603625 -13581.708056230778 72.42682585541658 78 76 67
9197.715961788123 -13580.937500671664 72.31877485530335 79 74 69
9195.056521929639 -13580.044439079282 71.65097433693613 75 72 66
9195.731737021984 -13579.344615778402 71.8775805644098 74 71 65
9197.313337971067 -13578.699231256911 72.34717576535863 72 68 65
9196.519324833911 -13577.912983402992 72.1797910690976 69 68 62
9198.17880277158 -13577.274170432469 72.67014732964985 69 66 62
9199.78118195466 -13576.633536780104 73.14509717465887 71 66 63
9201.628481715543 -13576.009594357989 73.6855847102344 68 65 60
9198.83323225411 -13573.621712664079 73.07292099401324 64 63 55
9183.944978800124 -13567.447716883533 69.40671248417604 69 65 61
9159.221243195954 -13563.503696984832 62.93006016383202 64 63 58
9160.042830929848 -13562.7984857337 63.1967799141924 67 66 62
9158.818882663152 -13561.951183349787 62.916305321599665 68 66 61
9148.668601034413 -13560.474161703974 60.24857266856309 69 67 61
9112.172642294583 -13554.750879101253 50.68198124118626 70 65 60
9103.49029969451 -13552.532841952136 48.458841037631686 69 66 61
9096.604678337295 -13551.22755082282 46.667816095841346 69 67 63
9091.440425497802 -13550.04323776686 45.33718205036094 69 65 62
9194.653644563008 -13551.056497988384 73.32649135172113 64 59 57
9192.715670918962 -13550.155178512296 72.8552823234871 63 60 58
9190.873962843356 -13549.259350183342 72.4098986058659 57 55 52
9188.915721756459 -13548.351852336013 71.93356166083362 68 66 64
9192.18907326254 -13547.870715147774 72.85283364531189 76 69 66
9188.595163695087 -13546.826545883156 71.94036406564716 84 77 70
9190.94349085726 -13546.271719396842 72.61276683760879 124 119 114
9180.69217165265 -13544.666058818246 69.92549508408943 84 78 75
9182.229009150255 -13544.040868562708 70.38168077646536 103 83 73
9191.89463294386 -13544.105727181959 73.00464901871307 103 84 75
9192.007050236163 -13543.366677180094 73.08071129020793 112 96 85
9192.728577906699 -13542.679861947516 73.31910352857945 120 106 95
9191.544299856936 -13541.829110055498 73.04962308002355 97 86 78
9189.990048619624 -13540.944740764658 72.68165991554615 83 76 70
9189.495945568813 -13540.15122239021 72.59623369062108 132 124 119
9188.098286130884 -13539.277476123638 72.27017553279059 118 111 108
9183.756238712162 -13538.141248766138 71.16004277201637 75 70 65
9184.108130456996 -13537.41839578073 71.30019299683885 71 67 65
9184.488162045425 -13536.698300423139 71.44782137291911 57 55 53
9192.801780844758 -13536.694306517453 73.70757604731848 57 57 56
9193.564491445253 -13536.013873672737 73.95676813476823 55 55 54
9186.86646327601 -13534.652699484323 72.22016917766304 57 55 51
9179.527928167248 -13533.225097445635 70.3135811482546 58 55 52
9179.257923387013 -13499.716016379334 72.3036125069012 62 57 49
9177.07406424921 -13498.696119598615 71.77287745618021 64 57 53
9169.224219624017 -13497.007956323667 69.74336844965688 64 60 54
9161.044902820415 -13495.271964347761 67.62725935452649 65 62 55
9164.8190891977 -13494.9443870014 68.67319438172534 70 66 59
9172.630049952299 -13494.3328566179 70.83374537090135 67 60 54
9179.495888325217 -13494.38948407445 72.69628353279059 69 62 55
9185.833822981149 -13494.389845475296 74.41881063826293 67 64 58
9174.030991079766 -13492.194836806275 71.34615326546222 62 60 57
9188.554091794873 -13493.197188977434 75.23157735453293 68 68 66
9149.92388198841 -13470.445854124951 66.13348000446236 87 79 77
9155.792071189951 -13470.454308890947 67.72783943058762 93 87 76
9159.729616964843 -13470.20664424708 68.81325208591338 95 92 85
9160.850794175527 -13469.578646856491 69.15664081163136 99 90 85
9153.938851102765 -13467.850222990826 67.38451761667972 97 88 83
9150.575874439151 -13466.602495800531 66.54734655224338 94 90 85
9146.041693037345 -13465.188898185334 65.40207468589952 101 94 89
9143.163749927486 -13460.042029629527 64.9368284040703 90 84 74
9148.215883448502 -13442.563824222607 67.38618640002373 113 109 103
9154.328512544009 -13442.719516598894 69.03791412012593 142 138 132
9157.285418937774 -13442.390406259308 69.86181990617953 150 148 143
9160.987721323521 -13439.821742782971 71.02621908984146 133 130 126
9160.157644002084 -13438.903333595208 70.85717092424774 131 129 128
9166.429671375188 -13418.677268833755 73.80728361493418 78 72 60
9166.730998000437 -13417.941606844408 73.93447979812493 81 72 62
9163.993658656318 -13416.674000368761 73.26857108146191 83 75 66
9160.910524834451 -13415.342350263265 72.5126246151539 99 91 85
9153.882789974237 -13410.922981136222 70.87473345957743 104 105 111
9156.605202488054 -13410.612471835386 71.63376214584999 118 120 123
9166.487705772382 -13411.587409562822 74.2596341298508 117 118 121
9165.84352585813 -13410.681947746147 74.14031263871907 114 114 115
9156.624856679242 -13408.229930095262 71.78581543802483 124 123 125
9156.160062875932 -13407.350196353085 71.71366394792543 129 130 130
9157.837156402533 -13406.85831609136 72.19976005613486 118 117 120
9168.742381532616 -13408.047513567542 75.09039785817741 124 124 126
9156.633270812716 -13405.047733979147 71.98405479194503 112 112 114
9162.30630431667 -13405.290257870167 73.51096056429913 114 114 116
9170.415587322062 -13405.98664515084 75.67205212657203 104 104 107
9174.111124119747 -13405.878838312094 76.68307847802195 108 106 108
9173.59594984151 -13404.996782205768 76.59737738590987 90 84 82
9308.152532596652 -13428.448102049602 111.72362649488842 86 72 66
9339.669629190219 -13432.925004361387 120.01379206632919 85 88 93
9338.289373884938 -13431.97323158001 119.69726877208353 82 83 88
9163.455245621366 -13394.389078411807 74.49449472562817 69 66 72
9185.970248848063 -13383.806853324575 81.26534259164049 72 68 67
9179.632923371872 -13381.737368322381 79.67039305984805 63 60 57
9179.553139670008 -13380.143053626218 79.74688346145706 97 99 99
9179.872500999832 -13379.419008848876 79.87826582719873 57 57 64
9180.470642056576 -13378.752309616519 80.08188485730258 37 36 39
9180.474714061145 -13377.964023122753 80.13153248410434 34 35 37
9180.923553283055 -13377.267255038907 80.29642523402521 94 92 94
9181.574681930606 -13376.612654160463 80.51370045496981 76 79 89
9182.962837802323 -13376.111414209121 80.92184427455919 59 62 69
9182.414756673383 -13375.209141336616 80.82844452956672 59 62 69
9184.177744046694 -13374.787789613956 81.33354222288013 64 66 71
9186.59955903524 -13374.506017625536 82.00910372582015 97 100 104
9183.900657707965 -13373.153594162466 81.35886468847937 70 67 69
9183.070222432398 -13372.19058875011 81.19246537254304 38 35 35
9182.72419464371 -13371.328547365923 81.15150313147036 42 36 37
9184.466802802632 -13369.329892426797 81.74818888789729 45 46 47
9185.108803106279 -13368.67771194557 81.96283412818613 49 51 54
9185.312008544193 -13367.932361303468 82.06395914621787 73 72 76
9177.201803081836 -13365.406122214017 80.01529506085865 92 94 95
9177.758819592209 -13364.732095010433 80.2081883365221 74 70 69
9176.906136271144 -13363.754916798009 80.03661508670393 92 89 86
9176.223858435103 -13362.813384784115 79.90916031138592 100 97 94
9173.58037358746 -13361.446204733662 79.27489126533736 115 114 108
9169.873139113686 -13359.844825323036 78.36593354288429 134 132 128
9177.077304005074 -13360.614442512311 80.27651913133923 107 105 103
9191.436633578794 -13362.954113170854 84.03508375672874 64 60 56
9192.80131458009 -13362.466203794635 84.43602661463319 61 55 51
9202.690489557532 -13363.850372964605 87.03851230031663 59 52 49
9198.891071999964 -13362.234013234352 86.10542314337873 68 58 54
9195.272825946722 -13360.653045155583 85.21939416738594 68 59 55
9194.106824895514 -13359.610114721027 84.96671504024008 74 62 56
9193.165553606286 -13358.615502198143 84.7721385621894 91 77 66
9191.444783269928 -13357.446309826624 84.37645693648777 106 91 79
9192.061377533626 -13356.796019888847 84.58408080566325 111 96 85
9194.605115650234 -13356.577018011545 85.28891382329174 109 92 82
9195.440005220189 -13355.977867770576 85.5527178000958 104 88 77
9195.483220657496 -13355.20165427927 85.61226055788892 112 97 85
9194.763080285458 -13354.253375514247 85.47493080018845 107 94 79
9195.659221828633 -13353.669108889593 85.75446558467257 90 79 69
9195.674775187548 -13352.886337565358 85.80689404829683 62 56 52
9195.92729791726 -13352.157210530328 85.92042370467696 66 59 54
9196.25415169419 -13351.445127885188 86.05310579643859 73 63 57
9196.314173834548 -13350.672378281228 86.1170030491082 71 62 58
9194.158255023971 -13349.392643328143 85.60986198694498 79 67 61
9190.398247706618 -13347.742367010233 84.68957241121373 83 71 65
9194.394954826259 -13347.87090253467 85.76789860882177 89 77 70
9194.00603173446 -13346.993065876213 85.71625074752563 81 69 59
9195.176286824777 -13346.474899652172 86.06621489882538 82 72 62
9195.033626704952 -13345.653781347179 86.07800478856575 82 73 65
9197.414975869202 -13345.418513328075 86.73970471657609 83 73 67
9198.628422683903 -13344.913937998394 87.10057079145372 79 71 64
9201.382519714702 -13344.770213774307 87.85794057074511 80 70 65
9201.556061499025 -13344.025705887418 87.95095158677128 72 62 58
9202.525471075996 -13343.467926132882 88.2487684497409 61 54 51
9204.38457975038 -13343.120333292069 88.77544846952762 75 73 73
9204.241147885594 -13342.302659309258 88.7868165176549 71 71 69
9204.147574761411 -13341.496435117366 88.81103032219767 65 64 64
9202.753896514452 -13340.381926349126 88.500879805374 59 57 58
9199.192464137688 -13338.750792126099 87.63338099784697 60 56 58
9203.67251779768 -13339.029844015948 88.83380459979318 64 59 58
9208.983927372163 -13339.512379871157 90.24764736634104 57 56 53
9224.440496303067 -13342.428171579371 94.2689478681841 59 56 57
9227.61696642033 -13342.416696718154 95.13296828260135 63 60 59
9227.751002100698 -13341.677317824782 95.21492633891592 63 61 60
9228.871181617993 -13341.175595659646 95.55026816126565 39 36 40
9230.640105558377 -13340.83174932131 96.05220671024487 38 37 42
9238.762524568858 -13605.364970014858 81.22047357017632 115 109 105
9239.39307757167 -13604.680007332798 81.43431121838924 117 113 108
9240.005968356823 -13603.99484324326 81.6433508936964 121 114 109
9240.298159686516 -13603.296555898904 81.76585388125051 117 107 105
9240.005196683558 -13602.573226803961 81.73052780179724 113 106 103
9236.693619262647 -13601.71771884161 80.88119886264904 112 104 98
9235.932085303819 -13600.97111931725 80.71968663540882 103 97 90
9232.694368480374 -13600.112804535585 79.89064636855171 107 99 92
9227.29700886869 -13599.153059985558 78.4796563696117 108 100 92
9227.691090895603 -13597.015578508845 78.71837714837059 88 81 74
9224.317450623075 -13596.136783351114 77.85357669022822 83 75 69
9221.21766703743 -13595.2673077771 77.06278897571843 80 74 67
9194.511029920088 -13550.23723031711 72.55717181171514 65 62 60
9192.21342453097 -13549.305324871013 71.98869710923726 60 57 52
9190.718778630742 -13548.436119420596 71.63505644539708 62 60 56
9189.966610321362 -13547.625983608676 71.48000056807705 85 77 74
9186.156376006496 -13546.562458021299 70.50764794408842 70 61 63
9188.542368798195 -13546.009414631018 71.19147533013195 109 102 99
9190.286860445232 -13545.405195116415 71.70373392593241 113 108 105
9189.910641829787 -13544.624196953362 71.6492778821655 115 108 102
9189.76752192929 -13543.862383385758 71.65712763203894 123 110 104
9197.374877349028 -13543.76136363757 73.73522147132458 118 100 91
9195.677124183572 -13542.869740616014 73.32764199923908 115 96 83
9193.575869215043 -13541.941223411064 72.81243559692267 102 82 70
9191.320718645953 -13540.996847203167 72.2562901617031 106 94 85
9189.012994949933 -13540.045222660876 71.686271847746 101 95 89
9188.953252835934 -13539.288854822486 71.71649501649604 84 81 73
9182.58927564277 -13537.973611296924 70.06409666584734 56 52 48
9183.108714446054 -13537.264959379048 70.24912823931524 68 65 62
9180.69649257016 -13499.049628291064 71.94125780260069 53 51 52
9170.085637884555 -13497.038456246253 69.17498958713949 54 53 50
9167.891092668971 -13496.009185174335 68.6405686923062 54 54 49
9168.468931956946 -13495.306256005893 68.84115401943936 56 55 50
9162.82718218738 -13493.862351396285 67.39336511550353 60 56 52
9166.492364795844 -13493.526698142463 68.41222034038043 65 61 56
9167.52823266157 -13492.878593121184 68.73418095570308 57 56 53
9170.038229410231 -13492.409699805106 69.44660843627076 59 58 59
9175.130107659605 -13492.257034434786 70.8427798301985 51 52 52
9173.906757868866 -13491.339372775568 70.56600602039096 43 45 44
9172.138037900755 -13484.957239610376 70.47660141181244 49 50 49
9155.038088697169 -13471.843939320648 66.62546075667528 45 41 39
9157.002463269528 -13471.325608673495 67.1923254632478 44 41 40
9159.190111509624 -13470.839577539666 67.81801390799053 42 41 37
9160.275042493831 -13470.205820950681 68.15245499703344 48 46 43
9164.01427996712 -13469.935739978386 69.18744852507065 45 41 40
9169.220547022922 -13469.870951788384 70.60937219484597 45 41 38
9168.58061692043 -13469.006607754745 70.4882168926211 44 42 40
9165.205035260404 -13467.76302966352 69.64531097947815 46 44 41
9160.504247140754 -13466.33145764518 68.4530374770293 51 47 45
9159.500302773075 -13465.409880337516 68.23626003230034 61 57 51
9159.219781075233 -13464.588284268586 68.21036286897072 67 59 54
9157.751876917411 -13463.599312211752 67.87136747174713 79 70 61
9154.510088955922 -13462.358186307098 67.06474990325769 68 59 51
9145.997171021212 -13441.346689742571 66.03781465174895 62 56 51
9156.051813993512 -13442.118929093453 68.72875454551135 68 61 59
9168.911319758461 -13419.026675776657 73.6505621381282 84 79 75
9168.88531338286 -13418.235175957563 73.69213289843233 97 93 88
9165.993508921585 -13416.941458598927 72.9840671052923 106 100 97
9157.70083839789 -13414.695077974184 70.86362103364588 117 111 109
9162.99954950122 -13414.83548927323 72.29810843579523 116 112 111
9158.406871755253 -13413.232088322507 71.1458414527098 120 116 114
9160.811599579425 -13412.072475164796 71.87205735339636 135 133 129
9164.080503981173 -13411.86357946136 72.77519330624439 140 139 137
9166.332255906369 -13411.476005231048 73.41228839807863 136 136 136
9166.262563223523 -13410.673561010502 73.44263382743881 134 134 134
9153.274738783706 -13407.541441078742 70.09789628723614 131 131 132
9155.669862155897 -13407.176986456527 70.77261781885946 122 123 125
9156.055650715676 -13406.450478336257 70.9223470062892 128 127 130
9157.839158758103 -13405.978685710494 71.4370915144811 121 121 123
9149.283192625764 -13403.620652951284 69.25179944227322 120 120 122
9154.84382342467 -13403.838603365459 70.75285504608954 122 122 122
9161.438983820073 -13404.252860280483 72.52360062180267 125 122 124
9168.807481768008 -13404.817058189825 74.49574989707651 132 131 131
9169.388686471517 -13404.134537325242 74.69599730143936 88 86 86
9164.27648790671 -13402.396519991662 73.4105122957814 66 66 68
9322.650925884416 -13429.664611722794 114.86804966560318 53 53 56
9325.034151246547 -13429.409559645987 115.5328057429769 43 44 46
9338.470383164167 -13431.238877452859 119.07975182415227 49 48 50
9189.015760110398 -13384.33542148647 81.2585406979858 81 76 68
9187.421760920372 -13383.228784492534 80.89243586215392 74 69 61
9185.970400264465 -13382.149142913991 80.56351960855118 80 71 64
9182.561260252722 -13380.668500584983 79.72604637706546 87 83 82
9182.07274628975 -13379.78091348754 79.64755843237211 57 52 57
9181.010929431515 -13378.775047286808 79.4202005127714 43 40 43
9180.958075582026 -13377.975248445488 79.45496943258114 42 39 39
9181.45076425636 -13377.287710266834 79.6314176687951 78 78 78
9181.324584066564 -13376.47261082365 79.64715648988306 54 52 56
9183.077611056975 -13375.25845171867 80.19923283075667 31 33 37
9184.425244078557 -13368.442603749527 80.98523605874442 47 49 51
9185.026076355818 -13367.781728861532 81.18949850375822 60 61 60
9177.085220530878 -13365.290960710616 79.17989268618462 75 76 77
9175.244611155822 -13364.101598476049 78.75170802818826 74 73 71
9173.778813797371 -13362.99068960697 78.42078190624572 95 93 91
9173.962204746518 -13362.234190565816 78.5172310972823 100 96 95
9170.057501554893 -13360.592209227114 77.55470741771849 101 98 95
9171.197467921196 -13360.041189133444 77.89905171358646 106 102 100
9176.11162212685 -13360.313232482627 79.22071253782914 108 104 100
9190.211212166612 -13362.596461404333 82.92042400855726 106 103 99
9191.623045267437 -13362.1181349757 83.33434346034062 98 93 90
9194.334081454568 -13361.926472001138 84.08448317377892 86 80 77
9201.60334127614 -13362.74102139264 86.014215512185 73 66 64
9199.51896382953 -13361.499750634595 85.52283077904495 67 57 51
9197.518962942451 -13360.274562776422 85.05343761413836 85 72 63
9196.102311033728 -13359.176293441087 84.73511943542763 92 76 65
9194.99543164407 -13358.145110908212 84.4970448121931 89 73 62
9196.99586766988 -13357.805397843687 85.06275129249305 107 90 78
9199.185258919693 -13357.510090743592 85.67719060238417 111 93 79
9197.556718898919 -13356.361338440234 85.30426731381291 103 87 73
9197.879027914414 -13355.64896245572 85.43583896758949 103 86 72
9196.846954595301 -13354.631622942443 85.21728704957219 101 86 72
9196.981218152203 -13353.876397512797 85.30027797128116 80 68 62
9194.776738910361 -13352.591469775025 84.7788667886463 70 65 60
9195.022780179059 -13351.860245317257 84.89082533200352 70 59 53
9195.800031902098 -13344.95078383061 85.52723809098478 79 68 64
9197.43782157482 -13344.544056641786 85.99829621441536 82 73 66
9200.535577834831 -13344.47994366429 86.8459196749756 80 69 61
9216.260748671193 -13347.374869513184 90.95076139362894 77 65 57
9211.525351737124 -13345.487013386377 89.77710997014131 76 66 60
9210.069959485985 -13344.36501616173 89.44969931139774 85 82 82
9209.505135718982 -13343.451161924228 89.35204282896312 76 75 77
9211.872161684583 -13343.229561870006 90.0103306530284 73 71 72
9215.205513586716 -13343.239562095903 90.91756347857802 68 66 68
9213.811655912763 -13342.130273819028 90.60613070904593 65 62 63
9211.158637994022 -13340.719324258673 89.97030537555109 69 66 66
9208.814280330942 -13339.378796373612 89.41421567417441 62 60 61
9212.08814532451 -13339.37990451532 90.30579367523869 58 57 56
9215.710588094296 -13339.46830028394 91.28694220097167 55 54 54
9219.593736269217 -13339.623464188837 92.33499030747728 50 48 50
9225.093866639438 -13340.172816022025 93.79919713527758 36 36 40
9231.139471715936 -13340.860257401804 95.40347710200744 38 38 40
9220.43358229254 -13605.282681383871 75.47305397064504 64 60 53
9222.564378835146 -13604.648928022983 76.09348319105351 69 65 59
9226.650960024366 -13596.193142441329 77.72766891992923 77 74 72
9190.303946130909 -13550.585317857272 70.6063999722198 63 60 58
9192.347456715437 -13550.001223719417 71.19995974648933 64 61 60
9191.324687650596 -13549.171081151555 70.97176370535836 60 56 54
9188.262433564532 -13548.173478890923 70.19722388554926 58 53 52
9186.961982810744 -13547.316867308888 69.89486671778825 90 78 75
9186.711768230054 -13546.545398618526 69.87391711082459 118 110 111
9188.178916175984 -13545.91627395944 70.31293825409226 110 101 98
9190.503514533764 -13545.360373611878 70.98148291219722 115 105 100
9191.268941190856 -13544.675541316159 71.23240751506862 126 117 112
9192.203094239665 -13544.005707386676 71.52846085805042 129 117 111
9194.008049630182 -13543.411070678394 72.05756068318854 126 115 106
9195.143185993993 -13542.760738797175 72.40727002007391 107 98 92
9192.149373400016 -13541.754557005028 71.65193582567933 91 85 80
9184.173771191272 -13540.31147711429 69.5637727806655 107 101 91
9181.495609836458 -13539.323248582492 68.89348497311589 99 91 86
9181.590754174154 -13538.57625766505 68.96528925947042 51 50 52
9181.76275562417 -13537.836030944072 69.0576544441533 56 56 55
9185.29983971884 -13537.396059206967 70.04999898307923 66 65 61
9209.765757716323 -13533.65298901105 76.9569615652263 64 63 61
9258.775967337402 -13530.377832217002 90.53387948656776 63 62 63
9259.088174863507 -13529.693280970547 90.6610935456861 66 64 62
9255.333325132195 -13528.598716048155 89.70347928841935 67 66 63
9252.350543414303 -13527.578131061078 88.95203947672171 67 64 62
9250.813094806083 -13526.701467999203 88.58623088331657 65 62 59
9249.053599360539 -13525.8001800597 88.16133195581686 66 64 62
9244.114138979725 -13524.568975069129 86.88879644150623 63 62 58
9239.729641351118 -13523.38964333227 85.76453917843412 65 63 56
9237.394916724428 -13522.418867331848 85.18691174434531 63 62 56
9237.199879911317 -13521.669486829167 85.17966595323836 62 61 57
9233.985463698018 -13520.601761068609 84.3679007632712 66 64 60
9214.53252402914 -13505.174027935558 80.00545956545693 64 62 57
9185.502077633648 -13501.064357868525 72.33460344275325 61 59 55
9181.535795877164 -13499.841283972257 71.32717046620175 60 59 57
9171.010624380964 -13497.846042469548 68.57705694808921 61 61 60
9168.793808870854 -13496.815830356798 68.03525661786354 60 59 57
9164.630021968058 -13495.552951054078 66.97636278262853 62 62 59
9163.365228247587 -13494.629381945992 66.68784588106729 60 60 58
9176.154357537687 -13492.310229897059 70.3205850279854 69 66 64
9175.047022807943 -13491.407126353384 70.07378626749242 56 54 52
9184.592153376218 -13478.807384251482 73.45201225705092 61 55 55
9187.99182978322 -13478.492397633721 74.39918585000046 62 60 58
9190.308316109806 -13478.036696235358 75.05936808669865 62 59 57
9204.507050688324 -13479.173928348582 78.86472610651471 59 57 54
9199.886318867322 -13477.797331228556 77.68810015185434 57 57 54
9198.570514037752 -13476.861473439587 77.38641528192875 54 53 52
9187.896406892332 -13474.655531229319 74.6085831588089 54 55 54
9172.816450938553 -13471.837752753941 70.66584354986873 58 57 55
9169.410806868698 -13470.598341312925 69.81242323197351 51 49 46
9167.76672906189 -13469.596675413639 69.42518373030661 54 52 51
9198.303895670218 -13458.558692481818 78.43675645156954 57 54 52
9193.769861368592 -13457.119631069638 77.28762509834242 56 52 48
9150.913079551017 -13443.61369056635 66.4198431880302 52 49 46
9154.566022812032 -13443.387433242251 67.43069411584737 46 45 43
9157.48969382807 -13443.05188475775 68.24921727863361 47 46 45
9265.53198896175 -13436.497257816553 98.13850436806266 45 41 41
9163.78856147524 -13417.262463191584 71.55082158829572 51 44 41
9163.567158372798 -13416.43349746974 71.5412634265893 57 49 47
9172.484807695266 -13417.210838419314 73.92738299621799 63 54 52
9171.232314508801 -13416.204394446147 73.64730859736542 58 53 50
9167.520403237626 -13414.761156490991 72.7228086742458 62 55 53
9166.586404470834 -13413.806654346536 72.52647099913827 64 57 50
9168.646318151617 -13413.384120053539 73.11459379323608 71 62 57
9166.127573779957 -13409.77526339174 72.6486230050528 87 79 76
9166.598292630782 -13409.069958955184 72.82037170181269 91 82 76
9159.012607384084 -13406.90256421367 70.8830713007979 95 85 79
9155.487652991735 -13405.465778821963 70.00920000487704 93 88 85
9144.338706318846 -13402.632088588018 67.14029419070492 104 95 92
9148.780992004798 -13402.642493405283 68.35205151363415 105 96 91
9156.508928917086 -13403.261786270325 70.42317109799608 110 102 97
9161.511217840978 -13403.38718024142 71.78070937098529 117 107 102
9166.370571701054 -13403.4917038226 73.10051823768015 115 108 101
9339.00396105262 -13432.651272042049 118.42659362058195 99 93 89
9330.406607088038 -13430.343126253116 116.22182381461616 93 85 80
9326.11767260564 -13428.836704096657 115.14371893380586 88 80 75
9188.107662321265 -13382.496446042125 80.3213647363283 82 75 72
9186.395710248 -13381.362838347559 79.92369717794308 75 73 73
9183.448875867092 -13379.974523587924 79.20463304375444 55 49 50
9183.400761291716 -13379.177177813162 79.24042878331471 48 44 45
9182.514820742097 -13378.207286031033 79.05815158342466 49 45 45
9182.666991344591 -13377.450324423755 79.14613139806654 64 62 61
9207.731561074528 -13366.333030872187 86.6689808427608 112 107 99
9213.485446609358 -13366.815747647719 88.20971980462677 110 106 98
9211.401730759 -13365.58401099584 87.71661132782677 110 106 97
9207.880170849852 -13364.033136954704 86.85066724126006 106 101 94
9206.298080931008 -13362.90612774975 86.48803697118457 106 96 90
9202.120679808208 -13361.202720446932 85.45245948514601 97 87 83
9200.508970495972 -13360.063626457484 85.08248699671158 93 81 77
9199.745997968083 -13359.11132389806 84.93269110681887 84 71 65
9201.540409691948 -13358.72842973241 85.44592025453096 80 64 58
9202.06386570731 -13358.063213335316 85.62960215527093 88 70 61
9202.191546597704 -13357.30969723818 85.71068677247801 85 68 57
9202.491650150618 -13356.59492667196 85.83645173311612 86 71 60
9200.87798311974 -13355.44899532297 85.46636449942577 85 70 58
9204.484332314449 -13355.480597991667 86.44867592765812 70 61 56
9199.04719038174 -13353.467395293112 85.08829780897983 60 53 49
9199.845150820991 -13352.863913561894 85.3431096983006 69 59 55
9201.597533098076 -13352.478534387757 85.84502058815846 71 60 54
9203.182804710692 -13352.056879028376 86.30354936809296 74 62 56
9195.367437066889 -13345.545927062982 84.5700958442797 51 45 46
9196.21419728685 -13344.954331194886 84.83749690061187 77 67 64
9201.201763235797 -13345.3282123417 86.1757691246526 78 67 61
9204.456344795559 -13345.303013807863 87.06556103348396 76 63 56
9222.373712791472 -13348.714449775149 91.74626332837936 74 62 56
9217.447936091852 -13346.785031297328 90.52030661414781 79 70 65
9214.83846438212 -13345.394719400036 89.89343859515299 86 84 83
9215.388567648142 -13344.746481675382 90.08335125033507 81 78 80
9220.774361076072 -13344.467338198174 91.57037968107801 71 71 73
9213.351505445127 -13339.589324333427 89.84384976617916 68 67 68
9216.0154869521 -13339.448587430545 90.57954389408297 60 60 61
9219.999893821756 -13339.628439886996 91.65593843468524 49 49 50
9224.62426497596 -13339.967112059843 92.89724746410454 37 35 38
9232.861221432773 -13341.184293246031 95.07060147540778 37 36 40
9233.038149582722 -13600.736306578063 78.43803820804992 84 78 75
9228.440646607665 -13599.815023908704 77.23709741937131 81 77 75
9224.490063299052 -13598.917926223055 76.21160164778732 81 78 75
9219.808618140703 -13597.982838285445 74.98854910056808 82 78 72
9218.019438398664 -13597.176813742757 74.54859827004492 87 84 77
9104.027018352937 -13570.600537646738 45.00067011767223 83 77 73
9101.254399218029 -13569.638867758063 44.301291887449835 83 78 75
9098.343411691752 -13568.665380342529 43.56479508137083 82 79 74
9095.840033179453 -13567.71414966645 42.93841218513575 89 85 82
9078.644884334091 -13562.607625189079 38.54850042700004 89 82 78
9161.313114930157 -13552.027448458248 61.8055763952663 61 60 60
9191.978898523204 -13545.420954213023 70.59706208609096 123 108 102
9190.440764824103 -13544.542703277677 70.23019422789791 130 114 103
9191.80570144314 -13543.90889368338 70.64231564443543 137 123 112
9192.74236691672 -13543.239867481676 70.93946610901148 134 122 110
9188.899596080862 -13542.160955001707 69.95459311251193 128 112 102
9186.73075658626 -13541.222430753356 69.41892517133478 115 109 103
9181.95065857248 -13540.054041973817 68.18318284602229 73 71 71
9181.557763234721 -13539.26454587421 68.12409027120434 95 92 91
9180.814023802059 -13538.443530410073 67.9709758427456 94 92 93
9261.27840444677 -13530.564762413796 90.45984457507419 61 60 60
9258.943832709967 -13529.615893395583 89.87948408734415 62 60 60
9256.367140606399 -13528.6398491763 89.2345705653238 61 60 58
9253.28430239545 -13527.609435160177 88.4545612481745 62 59 57
9250.941321101045 -13526.6509273652 87.87249124892448 63 60 59
9249.208306553544 -13525.75223503599 87.45357744257286 60 59 58
9203.830381010688 -13515.863226918485 75.64889148812019 63 62 58
9201.913090181795 -13514.90965803156 75.18294131090931 61 60 59
9219.206161761596 -13516.020637976419 79.8443812843589 62 60 58
9218.037061796551 -13515.154106675043 79.57772280915026 64 62 60
9187.232127953255 -13510.306340493298 71.44981207903537 60 59 55
9180.046279154929 -13501.890179924563 70.00008204291775 57 56 53
9178.552714234092 -13500.953848743977 69.64896103622708 59 58 56
9177.4993388175 -13500.06673496721 69.41521292156426 59 58 54
9180.939914218372 -13495.115881655096 70.65944281549173 66 66 63
9180.145275771692 -13494.255283995168 70.49483259267468 66 66 64
9179.169240654053 -13493.37168963022 70.28202074363276 62 62 60
9176.846652908675 -13492.323160786138 69.71104243253973 60 59 55
9223.661693030057 -13495.047178364697 82.34765758941937 57 54 53
9220.815523490042 -13493.951180086888 81.6363923039845 55 52 51
9217.956683089835 -13492.850253151946 80.92196356208771 60 57 55
9191.176684654607 -13478.07963844948 74.5026595102946 66 61 58
9211.456818802157 -13480.032355962147 79.92947244410674 65 61 58
9181.934213656708 -13473.77364663575 72.23869398930572 59 56 54
9172.916176137333 -13471.77696875318 69.89465179115972 59 57 55
9170.097055263755 -13470.617505190587 69.19467163159068 56 53 50
9169.351242088234 -13469.739340698861 69.04449072020462 55 52 49
9229.235223774847 -13457.855684310243 86.15013272736506 55 52 50
9226.652869625448 -13456.713511632805 85.51384689521099 55 51 48
9226.653297579312 -13455.96516159844 85.5598041524582 59 56 51
9230.495560712381 -13455.809222260848 86.62017920204455 55 51 47
9230.826629929994 -13455.113925230336 86.75331398377146 54 50 48
9276.179198120784 -13455.642245091023 99.12445433089171 53 53 50
9270.096529221593 -13453.9439252057 97.56493202330088 57 54 51
9266.550067851242 -13452.647002386017 96.67445112364432 52 49 47
9263.050280108939 -13451.353439998828 95.79652918064306 51 48 48
9260.397446053357 -13450.19311277704 95.14207981175048 51 48 47
9263.058911706803 -13449.8945578643 95.88825373425392 51 47 46
9258.694446060446 -13448.451359362032 94.78301645064535 54 50 47
9261.244784237982 -13448.136344717579 95.49980629099115 53 49 48
9259.030346836884 -13447.040445226803 94.96130777721478 52 48 48
9261.563480536659 -13446.7253789215 95.67339551852646 53 49 49
9258.852253065777 -13441.875408930115 95.2289853355341 54 54 53
9257.374689793938 -13440.89137983868 94.8851623676938 54 51 48
9255.304005020567 -13439.804925138207 94.38540031007432 55 52 52
9253.26083837243 -13438.720637993716 93.89303142821474 55 51 52
9251.424767610482 -13437.66922413457 93.4552876768512 53 50 49
9249.473206118555 -13436.595777725692 92.98730789743416 47 46 46
9247.12252657836 -13435.451352892818 92.41452085679845 44 43 42
9270.559396033152 -13438.750954788056 98.62216786454343 45 42 41
9267.42338945087 -13437.479700812632 97.842370158653 47 44 43
9264.964892644095 -13436.32231868713 97.24088980503747 44 42 44
9266.938109540331 -13429.347388736162 98.20779579986241 43 40 41
9340.183312512161 -13432.797577507417 118.02833128785217 48 43 43
9334.537351402627 -13431.04402467562 116.59162776698481 57 52 51
9330.383917678753 -13429.565140347868 115.54629167442737 64 56 51
9327.365616769 -13428.295930102147 114.7985601787244 65 56 51
9286.555856237284 -13405.346531089346 105.04323941374192 110 100 93
9285.001369580681 -13404.305850415845 104.68184881594608 108 99 93
9320.570291523172 -13410.772602554864 114.01349460972176 111 105 98
9322.012704775574 -13410.357396410078 114.43341459541604 106 99 91
9224.814893695264 -13369.208847258655 90.37127994626194 107 103 94
9346.02131547037 -13394.366006840926 121.97909804905463 108 101 90
9344.794004235186 -13393.397343914105 121.70277541412749 108 99 92
9203.444856086347 -13354.372702946148 85.43556352725729 59 51 47
9200.356536477759 -13352.88873834356 84.68183736128871 69 61 57
9224.570973977126 -13348.365686190047 91.58131898070887 89 83 81
9219.46230911773 -13346.391007058386 90.30510605335768 99 96 94
9219.23771919932 -13345.562598987699 90.29442698887968 94 91 90
9255.510990176665 -13353.366782809919 99.73678120694522 88 86 86
9228.542909177108 -13343.134067070112 92.98806912521081 69 70 70
9216.928587559716 -13339.574885079151 90.02967880563013 67 68 71
9218.98285693843 -13339.290986834534 90.60889243942718 61 61 61
9223.462698589017 -13339.594405884633 91.81550122243827 49 42 40
9228.132944277975 -13339.948943224195 93.07105247334184 46 38 39
9232.57593727442 -13340.25370195209 94.26750143256317 97 94 97
9231.026818739057 -13339.107605707102 93.91403620133887 145 145 147
9231.945610730185 -13602.781506900723 77.25931281786846 78 74 71
9230.523359273833 -13602.004493325008 76.91704324683298 79 75 72
9228.725748734214 -13601.209361584019 76.47301072083563 82 75 72
9225.606337830302 -13600.35357052291 75.67043501674156 80 75 71
9224.771984470883 -13599.596709698993 75.48805238979473 79 77 73
9223.981029940278 -13598.84076323956 75.31750772601592 81 78 73
9222.208677109647 -13598.038728825795 74.88081940321894 80 76 72
9220.0700580742 -13597.217592905368 74.34492024666399 81 77 73
9214.202609284439 -13596.218637088725 72.797971993848 79 74 68
9048.645803898768 -13585.166157806203 28.101338164480232 80 77 74
9106.062807945753 -13571.452258532 44.67560013821141 88 82 78
9103.564228903386 -13570.509929300753 44.04846107340634 82 78 76
9101.066786648844 -13569.564771037469 43.42180654444599 83 79 77
9098.266057488645 -13568.59781199392 42.713366329250256 80 76 73
9095.700977005166 -13567.642436301981 42.06879965040777 83 78 75
9081.189273441934 -13565.122641644408 38.24580406118744 83 79 74
9081.753286914665 -13564.355071434564 38.44731241501998 88 82 79
9081.413449210364 -13563.529146279932 38.40467975337332 89 83 80
9081.329560623106 -13562.719477190789 38.431198438237175 93 87 85
9260.373425800617 -13529.696504345433 89.51919321281066 58 56 58
9257.684418721425 -13528.709684553653 88.84258596187131 58 56 56
9254.250566539451 -13527.64411315277 87.96666207116147 59 57 56
9253.36264709194 -13526.83444383416 87.77282823609708 56 54 52
9191.575755949876 -13512.224626472842 71.73287802707412 58 57 56
9193.296519266323 -13511.656005655275 72.23923976610702 58 57 55
9187.721447393744 -13510.291623694091 70.79476513683129 56 55 51
9187.258306594429 -13509.482514642139 70.71731179279932 55 55 51
9186.677506535836 -13508.659739315157 70.6084484335388 56 55 53
9179.662217497435 -13494.126272157295 69.57452373450874 60 60 59
9179.82510247498 -13493.380108484784 69.66478994009105 65 65 64
9189.131467315454 -13476.205400321349 73.26547944912438 69 65 62
9191.561071688226 -13475.769078642701 73.95801627310718 69 64 63
9177.401406622064 -13463.816960449722 70.80826251015922 62 60 58
9157.221233295248 -13459.373266610462 65.54940871786825 64 60 57
9225.747940266454 -13457.248997124503 84.45971768043185 49 47 45
9289.506731688482 -13457.701008393042 101.90579976225881 56 53 49
9270.731446578138 -13453.972113097767 96.98826126355014 59 55 50
9272.950376326247 -13453.604097947722 97.61888387492766 54 50 46
9274.572875433287 -13453.142024439268 98.09180025190567 52 48 45
9268.702396224471 -13451.465933371626 96.58542655511317 54 50 48
9253.02342330938 -13448.186039403658 92.4890074748848 57 53 50
9244.178891637519 -13437.841198960536 90.69763720449112 59 53 51
9267.019912388881 -13438.064384716641 96.94379547133046 46 46 43
9263.777174221002 -13436.772341536887 96.13409641290326 50 48 44
9260.682445160837 -13435.502143330948 95.36362493667998 53 49 47
9257.743136614226 -13434.255333648061 94.63431782698801 55 51 48
9255.239763178062 -13433.081207686602 94.02003858308586 56 52 49
9284.150133618357 -13405.510493736076 103.62908678644541 65 58 56
9281.832647997757 -13404.3157564619 103.06701224800125 73 66 62
9282.658470618087 -13403.752413045237 103.32778402251796 84 76 67
9310.929082342658 -13408.7431999979 110.77044838473672 97 86 77
9313.192564137156 -13408.489028349293 111.4063196847435 102 92 83
9316.156351391068 -13408.379831910961 112.2252516967179 99 92 82
9230.59411260002 -13349.688984647979 92.36487569817052 101 95 90
9226.919536603396 -13348.054987515845 91.45773685343752 108 102 99
9226.151305963482 -13347.102490683174 91.30543844229504 107 100 99
9257.178600677264 -13353.671886901235 99.40707090342985 106 100 96
9217.262464041356 -13339.562205313176 89.33043321312238 82 79 80
9221.302797133054 -13339.75656633674 90.42584140342076 61 58 59
9225.152370378404 -13339.909464505354 91.47150533555572 47 38 37
9235.082662609748 -13340.76923727589 94.14042631913924 46 38 40
9239.355191967054 -13341.039267585918 95.29484318927452 53 39 41
9371.43042214481 -13371.072232965764 129.65491561774985 51 43 40
9366.600646394447 -13369.197990632034 128.44587333726284 60 46 48
9216.414694769053 -13604.95990683723 72.10626119809483 67 67 65
9215.660652187797 -13604.205415598366 71.94523312385256 69 67 65
9213.920594970015 -13603.408918123783 71.5159807824827 74 72 70
9100.546078038153 -13569.47004947139 42.45165905418061 87 84 83
9098.078753517533 -13568.523362617869 41.831845467797315 83 80 79
9095.593411196991 -13567.57267490063 41.20732788090413 77 74 73
9091.346551425853 -13566.507307880789 40.10604632934349 88 86 85
9091.810820714418 -13565.738686496017 40.28046465500256 94 92 92
9092.546704945009 -13564.987946212063 40.52838489112701 105 103 104
9092.866966683872 -13564.21078912824 40.6637755692465 129 130 131
9092.13885608469 -13563.364986697907 40.5154427854179 143 147 151
9088.578601012316 -13562.330716452621 39.60082472847628 144 145 145
9272.833757973573 -13524.503413933253 92.51162322086145 104 95 86
9271.013317457455 -13523.60058259012 92.06678588016283 104 97 90
9182.832904787298 -13495.965575399452 69.53671227034137 67 65 62
9188.790789094395 -13474.55654231176 72.47972298722908 60 58 57
9179.299687305282 -13470.95658046226 70.09293100513129 59 57 54
9283.652187634083 -13445.904009809485 100.28036778159509 56 50 47
9243.149410570255 -13397.954032551404 92.08398152813922 47 46 46
9238.9389427614 -13396.356999698693 91.02514702438444 48 47 47
9280.598404969653 -13403.986529534293 102.00034318759815 49 47 48
9280.062982692527 -13403.147672694811 101.90450426810642 53 53 51
9297.799701665801 -13406.006501001457 106.60102133754263 59 56 54
9306.411066262735 -13407.033324434873 108.90327563716923 58 53 53
9307.605237933933 -13406.560064944464 109.26011758169965 55 53 52
9310.34646916342 -13406.40385311025 110.02247459565943 61 56 52
9250.517974475877 -13348.973833785361 97.09734330479353 87 76 72
9240.550615487367 -13345.827212447086 94.55208543720292 80 71 69
9376.933210753528 -13373.022585310715 130.3467165163362 42 36 36
9373.157441342106 -13371.412188843695 129.40807855651127 42 35 35
9369.087036725286 -13369.724901565982 128.39321859051026 43 35 35
9365.308581024816 -13368.104526470748 127.45445199061558 46 36 37
9215.51689767181 -13604.869997617147 71.10102274064269 69 68 65
9214.761533758186 -13604.11482975077 70.9391616261332 77 73 70
9212.050703463052 -13603.277225897122 70.24418197375837 82 78 74
9191.790235993887 -13577.279843261571 66.25260503378301 151 156 163
9189.040782125727 -13576.370314484519 65.55137876474744 132 136 142
9184.306937400883 -13575.335949989601 64.3116574876036 132 134 138
9099.254298182137 -13567.74014229036 41.36812193047283 120 126 130
9101.265658064063 -13567.073921180054 41.962239511934314 142 147 151
9101.735903004 -13566.311027364174 42.13813494818191 157 163 168
9102.705499837284 -13565.580746828295 42.44946411188579 165 169 171
9103.488661292024 -13564.839221020082 42.710171725545514 173 176 178
9099.648180440527 -13563.79461423395 41.71692698470175 166 169 173
9253.61704557518 -13525.29370684146 86.4348773725676 79 75 63
9278.86785672713 -13527.195706059603 93.2679714956604 102 100 92
9276.829897875034 -13526.276812767213 92.76311823043908 95 96 93
9276.951273583441 -13525.582133975691 92.83884887307377 72 72 68
9273.653616748528 -13524.5267001098 91.99564823682856 87 79 69
9274.003833499622 -13523.144936706578 92.17622109826844 97 87 75
9160.51646175175 -13474.548158834968 63.90576238835245 89 89 89
9174.84116179401 -13474.13508506105 67.87306866726738 84 81 77
9292.199773715683 -13446.555249437739 101.8504864627834 73 72 68
9293.147277029175 -13446.00034839273 102.14504928480652 85 87 80
9310.996362024442 -13447.620029531641 106.9584012494173 66 65 61
9309.453732951291 -13446.650021944348 106.59297652668997 42 39 39
9311.3903308424 -13446.276706948915 107.1486723376141 42 40 40
9312.034824463615 -13445.682411192289 107.36224773005996 57 55 56
9315.450218467411 -13445.568601648925 108.30909389643935 68 67 61
9300.929682950597 -13441.62997527851 104.55305210974535 80 78 74
9181.029300729999 -13401.162448375724 74.02240999260671 61 58 58
9174.621407067689 -13399.16516178577 72.38066570144838 66 63 63
9279.73886136004 -13405.194891404859 100.9414338813382 57 56 55
9279.919122598656 -13404.499986911253 101.03338348963517 53 53 53
9280.703896860123 -13403.926836957333 101.28427545468345 53 52 52
9279.501989708373 -13402.953334976155 101.0128298350389 58 57 55
9291.942093018266 -13404.740439795847 104.32743635167071 61 58 57
9296.098923578418 -13404.859827395854 105.4641156047338 61 57 58
9302.20664374324 -13405.38111946401 107.11318799484111 60 57 56
9302.338484908614 -13404.689004659693 107.19164248710179 59 59 57
9567.486602392879 -13452.601824038946 177.240595165241 43 42 40
9310.268511908509 -13374.726134330183 111.19967445894079 149 142 139
9306.611475818605 -13371.715546008658 110.3767047928895 139 129 123
9301.559716395515 -13366.183446743624 109.32355017452414 142 139 136
9305.768416090441 -13366.447255718726 110.46570384432327 148 144 141
9307.43645145937 -13366.115829728917 110.94493925149878 131 126 122
9369.632450500332 -13380.11575573778 127.20814409019196 108 105 99
9366.024536287587 -13378.571175646239 126.30936576610527 91 84 78
9351.824008794369 -13369.605811838332 122.94767928497231 59 54 49
9348.83604638304 -13368.18088606722 122.2122200180031 58 49 47
9345.919034747974 -13366.769565325745 121.49545731982063 57 49 48
9376.472767713349 -13370.081893266793 129.70197363412177 49 39 39
9372.161318459155 -13368.328951522164 128.62227938767313 46 37 39
9367.795175886895 -13366.557247863482 127.52867682121905 48 38 39
9216.892900274825 -13604.872348741044 70.71597603055655 84 86 84
