ply
format ascii 1.0
element vertex 742
property float x
property float y
property float z
property float nx
property float ny
property float nz
property uchar diffuse_red
property uchar diffuse_green
property uchar diffuse_blue
property uchar class
property uchar detection
end_header
9772.7998 -14180.6162 -163.4810 0.744 0.667 -0.033 70 59 56 0 0
9772.9736 -14181.2041 -163.4397 0.924 0.113 0.365 70 59 56 0 0
9772.5547 -14182.2969 -163.8754 0.758 -0.482 0.439 69 61 59 0 0
9772.5986 -14182.9961 -163.9384 0.855 -0.413 0.313 64 57 54 0 0
9772.2607 -14184.0225 -164.3092 0.884 -0.261 0.389 57 53 53 0 0
9772.6992 -14185.1230 -164.1526 0.674 0.346 0.652 61 51 53 0 0
9772.6240 -14185.9277 -164.3125 0.564 0.287 0.774 57 50 51 0 0
9774.9746 -14185.3857 -162.6140 0.248 0.905 -0.346 61 54 51 0 0
9774.9834 -14186.1162 -162.7055 0.678 0.581 -0.450 61 55 53 0 0
9777.1084 -14185.0244 -161.0897 0.978 -0.085 0.188 61 55 53 0 0
9777.3486 -14185.5537 -160.9940 0.848 -0.085 0.523 66 55 50 0 0
9777.3037 -14186.3301 -161.1291 0.873 -0.147 0.464 66 55 52 0 0
9777.4209 -14186.9668 -161.1329 0.786 -0.472 0.400 62 53 52 0 0
9777.2715 -14187.8350 -161.3524 0.925 -0.358 0.127 66 57 57 0 0
9778.2490 -14187.7266 -160.6616 0.852 0.457 -0.256 63 56 56 0 0
9778.2949 -14188.4258 -160.7235 0.630 0.769 -0.107 61 56 56 0 0
9784.7139 -14187.9941 -156.2254 0.610 0.786 -0.098 62 53 51 0 0
9785.1670 -14188.3330 -155.9572 0.853 -0.470 0.225 69 59 57 0 0
9784.3730 -14189.7666 -156.6979 0.769 -0.513 0.380 72 62 59 0 0
9783.9170 -14190.9043 -157.1653 0.820 -0.495 0.287 66 59 57 0 0
9785.2676 -14191.1943 -156.2701 0.474 0.872 -0.120 69 58 55 0 0
9788.6211 -14191.1855 -153.9491 0.349 0.817 -0.458 67 58 56 0 0
9787.4180 -14192.9883 -155.0226 0.765 0.033 0.643 68 58 57 0 0
9788.7334 -14195.5176 -154.4502 0.439 0.898 0.045 66 59 58 0 0
9792.5576 -14197.2783 -152.0403 0.711 0.204 0.673 65 55 55 0 0
9792.5049 -14198.0654 -152.1815 0.888 0.057 0.457 63 55 53 0 0
9792.7871 -14198.5527 -152.0518 0.969 -0.236 0.073 64 58 56 0 0
9792.2852 -14201.2314 -152.7567 0.999 -0.035 0.010 59 55 56 0 0
9797.5117 -14204.6582 -149.5992 0.265 0.941 0.211 68 59 56 0 0
9797.3447 -14205.5547 -149.8341 0.892 0.148 0.426 60 54 53 0 0
9797.5977 -14206.0674 -149.7281 0.920 -0.375 0.116 58 53 54 0 0
9796.8281 -14208.2646 -150.5532 0.989 0.105 0.102 55 51 54 0 0
9797.6396 -14208.2646 -149.9924 0.300 0.068 0.951 49 47 48 0 0
9797.6494 -14209.0029 -150.0843 0.818 0.526 -0.233 50 49 51 0 0
9798.2725 -14210.6699 -149.8758 0.830 0.333 -0.448 51 50 50 0 0
9797.5713 -14212.0674 -150.5475 0.684 0.288 -0.670 51 49 51 0 0
9798.6328 -14212.5811 -149.8816 0.668 0.365 -0.648 53 48 53 0 0
9805.8926 -14212.5439 -144.8549 0.898 0.318 0.305 54 51 53 0 0
9806.0439 -14213.8955 -144.9310 0.904 0.154 0.399 54 52 54 0 0
9806.0430 -14214.6445 -145.0314 0.957 0.025 0.289 62 57 57 0 0
9806.1279 -14215.3125 -145.0623 0.891 0.146 0.430 72 64 60 0 0
9806.2383 -14215.9570 -145.0719 0.891 0.146 0.430 62 55 53 0 0
9809.7734 -14216.3574 -142.6800 0.824 0.259 -0.504 65 58 57 0 0
9809.8857 -14217.0000 -142.6886 0.907 0.019 -0.421 66 57 57 0 0
9809.7998 -14218.5801 -142.9590 0.957 -0.115 -0.266 61 55 55 0 0
9809.5781 -14219.5410 -143.2404 0.838 0.405 -0.365 54 51 52 0 0
9809.9199 -14219.9648 -143.0606 0.951 0.030 -0.307 49 47 48 0 0
9809.5576 -14221.0625 -143.4580 0.931 0.028 -0.365 61 55 55 0 0
9809.5254 -14221.8447 -143.5846 0.914 0.133 -0.382 65 57 56 0 0
9809.2881 -14222.8242 -143.8800 0.863 0.248 -0.441 75 63 59 0 0
9809.1436 -14223.7158 -144.0984 0.923 0.008 -0.384 76 64 58 0 0
9808.7734 -14224.8252 -144.5031 0.934 -0.081 -0.347 76 63 58 0 0
9810.8350 -14223.6006 -142.9131 0.864 0.393 0.315 73 62 57 0 0
9811.2012 -14224.0029 -142.7139 0.719 0.028 0.694 75 64 61 0 0
9811.4424 -14224.5244 -142.6167 0.713 0.601 0.362 74 62 61 0 0
9812.1953 -14225.3057 -142.1998 0.585 0.803 0.112 80 67 63 0 0
9833.5010 -14225.4346 -127.4799 -0.336 0.941 -0.047 84 67 57 0 0
9832.1445 -14227.5332 -128.6987 0.177 -0.507 0.844 81 64 55 0 0
9831.6533 -14228.7725 -129.2041 0.110 -0.420 0.901 75 60 52 0 0
9831.1357 -14230.0391 -129.7308 0.110 -0.420 0.901 68 56 52 0 0
9833.9102 -14228.7646 -127.6417 -0.116 0.844 0.523 60 53 52 0 0
9834.1328 -14229.2900 -127.5581 -0.045 0.927 0.372 55 49 52 0 0
9834.9775 -14229.1924 -126.9606 0.050 0.864 0.501 53 47 49 0 0
9456.5010 -14047.2549 -363.5737 -0.352 0.898 0.264 147 146 146 0 0
9461.1465 -14045.8740 -360.1792 -0.442 0.814 0.377 145 145 145 0 0
9464.5137 -14045.0830 -357.7475 -0.453 0.802 0.389 148 146 145 0 0
9467.0947 -14044.6543 -355.9067 -0.482 0.766 0.426 146 144 143 0 0
9470.2881 -14043.9365 -353.6043 -0.495 0.732 0.467 158 158 159 0 0
9473.3584 -14043.2715 -351.3939 -0.495 0.732 0.467 158 158 159 0 0
9463.0244 -14059.8408 -360.7422 -0.325 0.937 0.125 154 153 154 0 0
9466.4355 -14058.9893 -358.2719 -0.325 0.937 0.125 153 152 153 0 0
9469.3086 -14058.3906 -356.2065 -0.285 0.958 0.039 157 156 156 0 0
9556.4844 -14022.1934 -291.1442 0.743 0.554 -0.376 150 148 149 0 0
9641.5273 -13981.4199 -226.9470 0.642 -0.346 0.685 143 142 142 0 0
9674.1748 -13990.3691 -205.5789 0.449 0.461 -0.766 166 166 165 0 0
9693.1201 -13986.8857 -192.0228 -0.321 0.947 0.008 139 137 135 0 0
9726.6299 -14094.5830 -183.2128 -0.464 0.437 0.770 91 85 82 0 0
9719.6885 -14157.5908 -196.4025 0.949 0.315 0.036 58 56 56 0 0
9719.0293 -14158.8340 -197.0235 0.934 -0.250 -0.255 60 58 59 0 0
9720.5869 -14159.8643 -196.0845 0.463 0.825 -0.325 59 55 54 0 0
9759.4893 -14151.3770 -168.0712 0.133 -0.233 0.963 54 49 50 0 0
9757.4453 -14153.7246 -169.7965 -0.462 0.328 0.824 54 50 51 0 0
9758.0742 -14153.9453 -169.3918 -0.502 0.428 0.752 58 53 53 0 0
9758.9424 -14153.9736 -168.7953 -0.502 0.428 0.752 58 53 55 0 0
9759.1357 -14158.1543 -169.2188 0.850 -0.100 0.517 51 48 49 0 0
9772.2568 -14152.5908 -159.4103 0.488 -0.592 0.642 57 53 54 0 0
9769.7471 -14156.0625 -161.6073 0.501 -0.667 0.551 57 53 55 0 0
9769.0234 -14157.3701 -162.2813 0.504 -0.718 0.480 63 60 60 0 0
9767.4668 -14159.3584 -163.6218 0.504 -0.718 0.480 57 53 52 0 0
9765.6377 -14161.5732 -165.1807 0.574 -0.729 0.373 51 48 49 0 0
9763.7852 -14163.8125 -166.7597 0.543 -0.727 0.419 54 50 51 0 0
9762.8877 -14165.2725 -167.5742 0.094 0.056 0.994 58 54 53 0 0
9763.4492 -14165.5410 -167.2220 -0.205 0.540 0.816 61 55 55 0 0
9759.2148 -14174.1455 -171.2944 0.578 0.794 -0.190 57 55 55 0 0
9759.7930 -14174.4033 -170.9293 0.830 0.544 0.126 60 58 58 0 0
9759.9346 -14175.0215 -170.9131 0.969 0.218 0.119 61 55 56 0 0
9760.0732 -14175.6436 -170.9003 0.969 0.218 0.119 59 51 52 0 0
9760.4014 -14176.1074 -170.7356 0.907 0.361 0.218 56 50 49 0 0
9767.1943 -14174.8574 -165.8752 0.263 0.901 0.345 50 49 51 0 0
9767.7725 -14177.3076 -165.8018 0.573 -0.704 0.420 60 51 53 0 0
9766.5684 -14179.0557 -166.8670 0.792 -0.179 0.583 57 51 53 0 0
9766.9199 -14179.4961 -166.6827 0.931 0.223 0.288 58 51 53 0 0
9766.9326 -14180.2217 -166.7705 0.886 0.050 0.460 59 53 51 0 0
9771.6240 -14180.6699 -163.5878 0.008 0.996 -0.087 55 49 53 0 0
9772.8018 -14181.1396 -162.8366 0.935 0.103 0.340 67 57 53 0 0
9772.2393 -14182.3545 -163.3871 0.773 -0.533 0.344 66 57 54 0 0
9772.4111 -14182.9453 -163.3474 0.805 -0.456 0.379 58 54 51 0 0
9772.0830 -14183.9619 -163.7092 0.815 -0.416 0.403 52 49 49 0 0
9771.9551 -14184.8096 -163.9109 0.733 0.344 0.587 57 52 53 0 0
9773.0732 -14184.5908 -163.1087 0.967 0.235 -0.097 57 50 51 0 0
9775.2529 -14185.6709 -161.7466 0.619 0.568 -0.541 55 51 49 0 0
9777.3135 -14184.6348 -160.1847 0.729 -0.296 0.617 58 53 51 0 0
9777.1982 -14185.4707 -160.3758 0.656 -0.308 0.689 57 49 46 0 0
9776.7236 -14188.0938 -161.0531 0.858 -0.356 0.371 59 52 53 0 0
9777.8975 -14187.8164 -160.2052 0.825 0.551 0.124 61 53 54 0 0
9778.3281 -14188.1807 -159.9557 0.401 0.907 0.133 63 57 57 0 0
9778.6318 -14188.6562 -159.8097 0.031 0.960 0.278 60 55 53 0 0
9781.7979 -14188.1152 -157.5496 -0.217 0.976 0.017 63 54 54 0 0
9782.8643 -14187.9219 -156.7867 -0.210 0.977 -0.026 63 55 53 0 0
9784.6846 -14188.5400 -155.6110 0.677 -0.450 0.582 62 53 55 0 0
9784.1416 -14189.7520 -156.1477 0.731 -0.505 0.460 62 55 57 0 0
9783.6641 -14190.9092 -156.6320 0.772 -0.502 0.390 57 52 54 0 0
9788.9717 -14190.6572 -152.9308 0.245 0.900 -0.361 62 54 54 0 0
9786.9980 -14193.1416 -154.6258 0.882 -0.096 0.461 63 55 55 0 0
9788.8486 -14192.9775 -153.3250 0.879 -0.467 -0.093 60 55 56 0 0
9787.8857 -14194.5713 -154.2025 0.899 -0.408 -0.157 60 53 54 0 0
9787.6660 -14195.5068 -154.4792 -0.048 0.999 0.004 60 54 56 0 0
9788.4482 -14195.5508 -153.9447 0.378 0.922 -0.086 63 55 57 0 0
9789.1367 -14195.6777 -153.4856 0.259 0.953 -0.155 63 54 57 0 0
9792.1826 -14197.3936 -151.6096 0.711 0.204 0.673 62 52 52 0 0
9792.2334 -14198.0879 -151.6666 0.972 0.067 0.226 62 54 53 0 0
9792.4814 -14198.6055 -151.5645 0.981 0.024 -0.193 57 52 52 0 0
9791.5176 -14200.9570 -152.5439 0.753 -0.450 0.480 56 50 51 0 0
9792.2783 -14201.0137 -152.0253 0.988 -0.135 0.080 52 49 51 0 0
9796.9551 -14204.1963 -149.2175 0.220 0.942 0.252 64 57 56 0 0
9797.2520 -14204.6689 -149.0754 0.172 0.817 0.551 65 57 56 0 0
9795.5527 -14206.9678 -150.5557 -0.144 -0.076 0.987 60 53 54 0 0
9797.1133 -14208.5205 -149.6841 0.100 0.627 0.772 51 49 51 0 0
9797.6104 -14211.0518 -149.6779 0.698 0.687 0.202 49 48 50 0 0
9797.8555 -14211.5732 -149.5781 0.700 0.682 -0.211 48 47 50 0 0
9799.2490 -14211.7793 -148.6423 0.732 0.272 -0.625 52 49 53 0 0
9800.0293 -14212.5518 -148.2061 0.779 0.223 -0.587 53 48 52 0 0
9803.4082 -14212.3955 -145.8503 -0.127 0.992 -0.004 58 52 55 0 0
9805.6875 -14212.5049 -144.2903 0.898 0.318 0.305 53 51 54 0 0
9805.8057 -14213.8877 -144.3928 0.904 0.154 0.399 63 56 56 0 0
9805.8789 -14214.5654 -144.4322 0.979 0.146 0.145 59 55 56 0 0
9805.9785 -14215.2197 -144.4503 0.979 0.146 0.145 66 59 55 0 0
9806.0166 -14215.9326 -144.5192 0.953 0.033 0.300 62 57 55 0 0
9807.0605 -14216.4453 -143.8658 0.811 0.585 0.033 60 54 55 0 0
9808.0195 -14217.0361 -143.2819 0.522 0.779 -0.347 65 58 58 0 0
9810.0293 -14215.8809 -141.7395 0.839 0.235 -0.491 70 62 60 0 0
9810.2080 -14216.4590 -141.6931 0.874 0.080 -0.479 66 58 56 0 0
9810.2441 -14217.1729 -141.7630 0.950 -0.174 -0.259 63 57 54 0 0
9809.8789 -14218.2686 -142.1612 0.967 -0.204 -0.151 62 57 56 0 0
9809.5986 -14219.2852 -142.4906 0.960 0.176 -0.216 59 56 56 0 0
9810.6250 -14219.0576 -141.7511 0.912 -0.027 -0.410 50 48 49 0 0
9810.4922 -14219.9326 -141.9592 0.884 0.012 -0.467 56 49 51 0 0
9810.1133 -14221.0459 -142.3697 0.848 0.103 -0.520 65 55 56 0 0
9809.8369 -14222.0615 -142.6960 0.907 -0.111 -0.407 73 62 59 0 0
9809.3584 -14223.2715 -143.1874 0.915 -0.190 -0.356 79 65 60 0 0
9808.9551 -14224.4121 -143.6184 0.915 -0.190 -0.356 79 66 60 0 0
9813.5469 -14220.7607 -139.9591 0.503 -0.679 0.535 76 63 58 0 0
9811.9717 -14223.0234 -141.3485 0.503 -0.679 0.535 75 63 60 0 0
9811.1650 -14224.5508 -142.1093 0.767 0.490 0.415 76 65 61 0 0
9811.8740 -14225.3760 -141.7294 0.543 0.827 0.144 79 66 60 0 0
9814.2168 -14226.8818 -140.3114 0.188 0.338 0.922 59 53 54 0 0
9833.3809 -14225.3115 -126.8594 -0.295 0.952 -0.087 83 65 57 0 0
9829.7422 -14231.9375 -130.2562 -0.094 -0.187 0.978 60 53 53 0 0
9831.5566 -14231.6250 -128.9606 -0.419 0.574 0.703 51 46 49 0 0
9833.5771 -14231.1016 -127.4948 -0.512 0.450 0.731 53 48 48 0 0
9836.6191 -14230.2910 -125.2850 -0.113 0.720 0.684 54 47 47 0 0
9460.2422 -14046.1729 -359.9671 -0.351 0.919 0.177 137 134 135 0 0
9463.7285 -14045.3271 -357.4482 -0.351 0.919 0.177 147 143 142 0 0
9467.0771 -14044.5410 -355.0318 -0.422 0.828 0.369 146 142 144 0 0
9453.6914 -14061.8125 -366.5674 -0.307 0.907 0.289 158 156 155 0 0
9455.8154 -14061.5889 -365.0717 -0.371 0.845 0.384 149 146 146 0 0
9424.5371 -14078.9795 -388.9742 -0.202 0.048 0.978 149 149 148 0 0
9668.5449 -13991.2227 -208.8671 0.355 0.611 -0.707 153 151 151 0 0
9671.0508 -13990.5781 -207.0517 0.355 0.611 -0.707 165 165 165 0 0
9676.9062 -13988.1963 -202.6924 0.456 0.449 -0.769 167 168 168 0 0
9673.3916 -13991.3066 -205.5322 0.386 0.677 -0.627 164 165 165 0 0
9674.4297 -13991.4141 -204.8296 -0.071 0.955 -0.287 162 163 163 0 0
9677.2764 -13990.5801 -202.7539 -0.071 0.955 -0.287 154 155 154 0 0
9680.1045 -13989.7510 -200.6911 -0.071 0.955 -0.287 143 143 141 0 0
9676.4990 -13992.2754 -203.5161 -0.283 0.955 0.086 138 136 135 0 0
9677.4395 -13992.4297 -202.8868 -0.330 0.934 0.137 131 129 129 0 0
9682.1465 -13990.6123 -199.3959 -0.257 0.960 -0.109 122 119 112 0 0
9685.8506 -13989.3135 -196.6667 -0.257 0.960 -0.109 129 125 123 0 0
9689.2070 -13988.1904 -194.2004 -0.321 0.947 0.008 108 104 104 0 0
9692.4980 -13987.0986 -191.7833 -0.321 0.947 0.008 130 128 125 0 0
9695.7646 -13986.0137 -189.3841 -0.321 0.947 0.008 127 124 120 0 0
9698.9385 -13984.9736 -187.0550 -0.334 0.941 0.048 128 123 121 0 0
9679.4385 -14048.3564 -208.9367 0.803 0.189 -0.565 171 168 166 0 0
9728.7217 -14101.9951 -182.0402 0.888 -0.455 -0.073 87 78 73 0 0
9719.4727 -14157.5625 -195.8073 0.957 0.269 -0.108 58 57 57 0 0
9720.8975 -14158.6924 -194.9740 0.839 -0.041 0.543 56 55 55 0 0
9720.4814 -14159.7520 -195.4022 0.581 0.805 -0.116 58 55 56 0 0
9721.0098 -14160.0869 -195.0821 0.581 0.805 -0.116 58 56 54 0 0
9728.9883 -14159.8438 -189.5414 -0.548 0.635 0.544 54 53 55 0 0
9759.3545 -14150.5723 -167.3468 0.038 -0.089 0.995 52 47 51 0 0
9758.5576 -14151.9238 -168.0760 0.104 -0.297 0.949 50 46 49 0 0
9756.4062 -14154.3574 -169.8850 -0.397 0.168 0.902 53 50 53 0 0
9758.8066 -14156.7744 -168.5490 0.746 0.647 0.155 61 55 56 0 0
9758.9082 -14157.4160 -168.5642 0.996 0.037 0.078 59 54 52 0 0
9754.1279 -14169.2959 -173.4422 0.028 0.986 -0.165 61 58 59 0 0
9755.1387 -14169.2070 -172.7328 0.028 0.986 -0.165 51 49 49 0 0
9758.2598 -14168.1240 -170.4339 -0.041 0.925 -0.379 49 48 50 0 0
9762.6211 -14165.2891 -167.0467 0.120 0.124 0.985 55 53 53 0 0
9762.9004 -14165.7891 -166.9204 -0.022 0.663 0.748 55 51 51 0 0
9758.3945 -14173.1465 -171.0081 0.688 0.722 -0.075 60 57 57 0 0
9759.0420 -14174.0830 -170.6857 0.703 0.706 -0.079 55 50 51 0 0
9759.3838 -14174.5361 -170.5097 0.890 0.435 0.138 61 57 57 0 0
9759.6680 -14175.0361 -170.3800 0.889 0.243 0.389 57 52 53 0 0
9759.8232 -14175.6436 -170.3538 0.889 0.243 0.389 56 50 50 0 0
9760.1074 -14176.1445 -170.2242 0.898 0.387 0.209 51 47 47 0 0
9767.1016 -14174.7285 -165.2079 0.149 0.903 0.403 50 48 51 0 0
9767.2529 -14177.5352 -165.4759 0.573 -0.704 0.420 53 47 50 0 0
9765.9414 -14179.3740 -166.6259 0.547 -0.703 0.454 55 49 51 0 0
9766.4736 -14179.6631 -166.2969 0.858 -0.097 0.505 54 49 50 0 0
9766.2783 -14180.5635 -166.5508 0.807 -0.165 0.568 53 48 47 0 0
9766.2930 -14182.0273 -166.7355 0.168 0.339 0.926 55 48 48 0 0
9772.2607 -14180.6543 -162.4335 0.721 0.690 -0.055 55 49 50 0 0
9772.1035 -14182.2588 -162.7549 0.810 -0.533 0.247 59 53 51 0 0
9772.1553 -14182.9512 -162.8115 0.805 -0.456 0.379 56 51 49 0 0
9773.7314 -14183.8154 -161.8382 0.523 0.605 -0.601 51 46 47 0 0
9775.6152 -14184.4092 -160.6162 0.256 0.934 -0.249 60 54 53 0 0
9775.6650 -14185.1035 -160.6744 0.811 0.566 -0.150 52 49 47 0 0
9777.3604 -14187.3281 -159.7994 0.945 0.091 0.314 56 51 51 0 0
9777.7471 -14187.7314 -159.5860 0.825 0.551 0.124 58 50 53 0 0
9778.2041 -14188.0732 -159.3160 0.426 0.889 0.170 60 54 55 0 0
9781.4531 -14188.2002 -157.0897 -0.217 0.976 0.017 60 55 54 0 0
9782.5654 -14187.9668 -156.2908 -0.217 0.976 0.017 55 51 50 0 0
9783.7559 -14187.6641 -155.4291 -0.171 0.985 -0.000 55 51 51 0 0
9784.2490 -14187.9688 -155.1290 -0.005 0.942 0.336 53 49 49 0 0
9784.6611 -14188.3447 -154.8946 0.819 -0.469 0.331 57 51 52 0 0
9783.6660 -14189.9521 -155.7947 0.545 -0.473 0.692 53 48 50 0 0
9783.1699 -14191.1260 -156.2934 0.588 -0.501 0.635 53 49 51 0 0
9787.3086 -14192.6475 -153.6386 0.995 0.035 -0.095 60 53 54 0 0
9789.3223 -14192.3389 -152.2076 0.892 -0.415 -0.180 55 50 50 0 0
9786.8975 -14195.2295 -154.2651 0.956 0.064 -0.288 55 50 50 0 0
9787.7275 -14195.2324 -153.6928 0.378 0.922 -0.086 58 53 54 0 0
9788.3242 -14195.4414 -153.3085 0.378 0.922 -0.086 61 55 57 0 0
9788.8828 -14195.6836 -152.9549 0.042 0.998 -0.045 61 54 54 0 0
9791.0459 -14197.4502 -151.6964 0.566 0.632 0.529 55 50 49 0 0
9791.6934 -14197.6094 -151.2704 0.784 0.205 0.587 55 49 47 0 0
9791.8779 -14198.1846 -151.2195 0.962 0.046 0.271 59 51 51 0 0
9792.6816 -14198.2031 -150.6672 0.963 0.067 -0.260 56 51 53 0 0
9792.9189 -14198.7295 -150.5735 0.908 -0.401 0.120 59 53 55 0 0
9791.1260 -14201.0869 -152.1244 0.714 -0.450 0.536 54 48 51 0 0
9791.1182 -14201.8369 -152.2294 0.792 -0.483 0.374 50 47 52 0 0
9794.3887 -14206.3135 -150.5660 0.349 -0.627 0.696 55 51 51 0 0
9795.7354 -14205.8281 -149.5721 0.208 -0.589 0.781 58 52 52 0 0
9794.3906 -14207.8037 -150.7627 -0.153 -0.156 0.976 56 49 51 0 0
9796.7783 -14209.3477 -149.3198 0.412 0.371 0.833 51 49 52 0 0
9796.8301 -14210.0469 -149.3772 0.290 0.304 0.908 52 50 53 0 0
9797.0723 -14210.5713 -149.2794 0.290 0.304 0.908 51 47 49 0 0
9800.8750 -14212.2822 -146.8812 0.615 0.609 -0.501 52 49 53 0 0
9803.1406 -14212.4141 -145.3345 -0.099 0.986 0.136 53 51 55 0 0
9804.4531 -14212.6816 -144.4645 0.305 0.879 0.366 58 54 55 0 0
9805.0869 -14212.8350 -144.0472 0.682 0.511 0.523 50 49 51 0 0
9805.3848 -14214.0498 -144.0032 0.762 0.256 0.595 55 51 50 0 0
9805.5527 -14214.6387 -143.9651 0.762 0.256 0.595 56 52 53 0 0
9805.8564 -14215.1016 -143.8168 0.842 0.288 0.457 59 53 53 0 0
9805.8760 -14215.8311 -143.9004 0.780 0.166 0.604 64 58 57 0 0
9806.3369 -14216.1455 -143.6239 0.651 0.584 0.485 56 50 50 0 0
9808.4307 -14215.6660 -142.1152 -0.080 0.980 -0.184 56 51 53 0 0
9810.0869 -14214.8457 -140.8625 0.649 0.560 -0.515 60 55 55 0 0
9810.5713 -14215.1338 -140.5668 0.858 0.173 -0.483 67 60 58 0 0
9810.8008 -14215.6621 -140.4781 0.874 0.080 -0.479 62 57 54 0 0
9810.1699 -14217.0078 -141.0923 0.902 -0.426 0.074 58 53 52 0 0
9809.9287 -14217.9854 -141.3888 0.882 -0.422 0.210 53 50 50 0 0
9809.4814 -14219.1611 -141.8541 0.886 0.427 0.180 50 48 52 0 0
9810.0352 -14219.3828 -141.5007 0.981 0.093 -0.173 51 47 50 0 0
9809.8076 -14220.3496 -141.7864 0.396 0.866 0.305 55 48 52 0 0
9809.9150 -14221.7490 -141.8980 0.938 0.284 -0.200 70 60 58 0 0
9810.2080 -14222.2207 -141.7589 0.934 -0.214 -0.285 79 66 60 0 0
9809.8271 -14223.3379 -142.1700 0.934 -0.214 -0.285 83 67 60 0 0
9811.4180 -14225.5762 -141.3695 0.623 0.598 0.503 70 60 58 0 0
9813.0430 -14227.0234 -140.4399 0.377 0.510 0.773 57 53 54 0 0
9813.2207 -14228.3604 -140.4947 0.823 -0.050 0.566 64 56 54 0 0
9836.8477 -14223.8477 -123.5848 -0.350 0.935 -0.064 60 52 50 0 0
9829.6582 -14231.7744 -129.6004 -0.407 0.844 0.349 59 51 50 0 0
9830.5830 -14231.6016 -128.9391 -0.407 0.844 0.349 59 51 51 0 0
9831.0029 -14231.9336 -128.6935 -0.023 0.901 0.433 51 45 48 0 0
9831.1846 -14232.5029 -128.6435 0.052 0.796 0.603 52 46 48 0 0
9839.0850 -14235.7979 -123.6273 0.877 -0.207 0.433 43 39 42 0 0
9458.9512 -14046.6504 -360.0447 -0.351 0.919 0.177 147 145 146 0 0
9539.1924 -14019.4473 -301.1011 -0.394 0.907 0.152 151 147 147 0 0
9673.9971 -13988.9424 -204.0890 0.663 -0.028 0.748 166 166 167 0 0
9674.1611 -13989.5020 -204.0501 0.614 0.641 0.460 162 162 161 0 0
9674.5029 -13989.9707 -203.8768 0.614 0.563 0.553 160 160 161 0 0
9675.7373 -13989.9756 -203.0257 0.116 0.993 0.006 150 150 150 0 0
9677.2852 -13989.8164 -201.9372 0.031 0.984 -0.178 144 143 145 0 0
9678.0898 -13990.0420 -201.4121 -0.218 0.972 -0.082 124 120 120 0 0
9680.8330 -13989.2568 -199.4163 -0.218 0.972 -0.082 100 91 88 0 0
9671.0352 -13995.0107 -206.9362 -0.020 0.943 -0.333 119 113 107 0 0
9673.6904 -13994.2734 -205.0069 -0.020 0.943 -0.333 134 135 132 0 0
9676.0723 -13993.6758 -203.2852 0.023 0.930 -0.366 99 94 89 0 0
9685.6543 -13989.3008 -196.0969 -0.257 0.960 -0.109 141 138 134 0 0
9688.6553 -13988.3662 -193.9037 -0.256 0.963 -0.085 128 125 126 0 0
9691.9375 -13987.2783 -191.4962 -0.256 0.963 -0.085 116 111 110 0 0
9695.1240 -13986.2363 -189.1603 -0.307 0.952 -0.013 141 139 138 0 0
9698.2266 -13985.2344 -186.8881 -0.334 0.941 0.048 139 138 136 0 0
9679.3770 -14047.5732 -208.1475 0.954 0.148 -0.259 182 181 178 0 0
9680.6963 -14047.4736 -207.2243 -0.215 0.969 0.121 182 181 179 0 0
9681.7588 -14047.5234 -206.4982 -0.230 0.941 0.248 181 180 176 0 0
9681.5518 -14048.3262 -206.7474 0.386 -0.537 0.750 182 180 177 0 0
9681.3516 -14049.1260 -206.9911 0.562 -0.624 0.543 181 180 176 0 0
9679.4600 -14050.9336 -208.5353 0.322 0.724 0.609 183 180 177 0 0
9679.4297 -14051.6338 -208.6488 0.383 0.763 -0.521 180 179 178 0 0
9680.6748 -14051.5742 -207.7822 0.242 0.891 -0.384 179 179 176 0 0
9688.3730 -14048.3320 -202.0432 -0.538 0.683 0.494 178 178 175 0 0
9712.1045 -14112.7402 -194.2104 0.609 0.347 -0.713 65 58 55 0 0
9712.6514 -14113.0684 -193.8767 0.478 0.543 -0.690 75 67 65 0 0
9719.4727 -14157.3711 -195.0424 0.959 0.279 -0.042 59 58 58 0 0
9720.5684 -14158.7520 -194.4696 0.839 -0.041 0.543 52 50 51 0 0
9720.5869 -14159.4775 -194.5530 0.839 -0.041 0.543 56 53 54 0 0
9720.7188 -14160.1162 -194.5469 0.816 0.545 0.193 57 53 51 0 0
9721.1387 -14160.5352 -194.3125 0.755 0.627 0.193 59 57 55 0 0
9721.7812 -14160.7812 -193.9017 0.415 0.910 0.021 57 54 52 0 0
9722.2588 -14161.1543 -193.6219 -0.195 0.951 0.241 64 60 61 0 0
9723.1143 -14161.2354 -193.0424 -0.277 0.920 0.277 56 54 54 0 0
9723.8135 -14161.4365 -192.5869 -0.338 0.917 0.211 56 54 54 0 0
9722.4121 -14167.7227 -194.3867 0.379 0.618 -0.689 47 47 49 0 0
9723.2002 -14167.8535 -193.8605 0.369 0.580 -0.726 45 44 49 0 0
9757.4707 -14151.8740 -168.1080 0.773 -0.578 0.262 49 47 49 0 0
9756.4170 -14153.4316 -169.0407 0.535 -0.485 0.691 49 47 51 0 0
9755.1670 -14155.1484 -170.1308 -0.361 0.244 0.900 54 52 54 0 0
9758.2646 -14157.0127 -168.2415 0.399 0.690 0.604 64 59 57 0 0
9758.6367 -14157.4365 -168.0408 0.984 -0.150 0.100 60 55 53 0 0
9758.1543 -14158.5479 -168.5207 0.973 -0.209 -0.093 55 51 51 0 0
9758.1650 -14159.2637 -168.6081 0.580 0.803 -0.139 53 48 51 0 0
9753.8193 -14167.1455 -172.6495 0.869 -0.220 0.443 51 48 51 0 0
9753.2803 -14169.0498 -173.2739 0.929 0.006 0.370 53 49 53 0 0
9754.4346 -14168.8447 -172.4506 0.059 0.927 -0.370 58 54 56 0 0
9758.5059 -14167.7217 -169.4937 0.227 0.898 -0.378 51 49 50 0 0
9761.0068 -14166.4082 -167.5951 0.070 0.966 -0.248 57 52 52 0 0
9761.9033 -14166.4033 -166.9759 0.137 0.926 0.352 56 51 51 0 0
9758.3193 -14173.0029 -170.3219 0.688 0.722 -0.075 61 57 58 0 0
9759.1572 -14174.5176 -169.9449 0.763 0.442 0.471 57 53 54 0 0
9759.4355 -14175.0234 -169.8199 0.641 -0.014 0.767 54 49 50 0 0
9759.5039 -14175.7021 -169.8629 0.524 0.269 0.808 53 49 48 0 0
9759.1689 -14176.7168 -170.2283 0.639 -0.208 0.741 51 47 47 0 0
9767.6289 -14177.7461 -164.5302 0.665 -0.596 0.451 50 46 47 0 0
9766.1777 -14179.7021 -165.7898 0.846 -0.118 0.520 51 46 47 0 0
9772.3164 -14181.1309 -161.7456 0.941 0.252 0.227 61 53 53 0 0
9771.7910 -14182.3145 -162.2652 0.854 -0.499 0.147 61 53 51 0 0
9771.7539 -14183.0820 -162.3924 0.901 -0.397 0.174 59 52 49 0 0
9775.2402 -14184.5195 -160.1785 0.556 0.814 0.171 61 52 50 0 0
9775.6396 -14184.9121 -159.9548 0.830 0.479 0.286 58 51 50 0 0
9776.1758 -14185.1875 -159.6219 0.442 -0.236 0.865 52 47 46 0 0
9776.0801 -14186.0068 -159.7962 0.442 -0.236 0.865 49 45 44 0 0
9777.4502 -14187.7744 -159.0854 0.735 0.336 0.589 54 50 51 0 0
9777.2930 -14188.6484 -159.3096 0.750 0.223 -0.623 56 51 53 0 0
9777.3467 -14189.3408 -159.3645 0.806 0.125 -0.578 55 51 50 0 0
9782.7930 -14187.5537 -155.3715 0.195 0.981 0.022 53 51 50 0 0
9785.1162 -14187.7305 -153.7925 0.944 -0.311 -0.107 56 52 53 0 0
9783.9297 -14189.5049 -154.8461 0.856 -0.489 0.166 53 48 50 0 0
9783.3154 -14190.7812 -155.4387 0.856 -0.489 0.166 53 48 52 0 0
9787.3740 -14192.3711 -152.8501 0.995 0.035 -0.095 54 49 48 0 0
9788.5020 -14192.1104 -152.0381 0.621 -0.609 0.493 54 49 49 0 0
9786.8564 -14195.7852 -153.6594 -0.223 0.972 0.073 54 50 51 0 0
9787.4131 -14196.0312 -153.3084 -0.090 0.991 -0.101 57 53 52 0 0
9790.7070 -14197.5322 -151.2355 0.566 0.632 0.529 55 51 49 0 0
9791.2344 -14197.7998 -150.9075 0.637 0.471 0.610 55 51 49 0 0
9791.2803 -14198.4990 -150.9683 0.527 0.735 0.427 54 49 49 0 0
9791.6631 -14198.8965 -150.7569 0.527 0.735 0.427 52 47 50 0 0
9792.4863 -14198.8965 -150.1888 0.795 -0.522 0.310 55 50 53 0 0
9791.6826 -14200.3613 -150.9376 0.698 -0.611 0.374 54 49 50 0 0
9790.8164 -14201.8857 -151.7371 0.719 -0.605 0.341 50 46 49 0 0
9790.0596 -14203.3125 -152.4480 0.738 -0.599 0.309 46 44 47 0 0
9791.0156 -14203.1934 -151.7727 -0.386 0.703 0.598 48 44 47 0 0
9793.2646 -14207.1123 -150.7408 0.496 -0.680 0.540 54 50 50 0 0
9792.7607 -14209.8164 -151.4466 -0.305 0.120 0.945 55 48 52 0 0
9795.6016 -14212.4473 -149.8362 -0.443 0.869 0.223 53 48 49 0 0
9800.8096 -14211.3652 -146.1006 0.349 0.823 0.448 49 46 51 0 0
9802.3828 -14212.1426 -145.1190 0.175 0.716 0.676 52 48 52 0 0
9803.9072 -14212.9600 -144.1758 0.255 0.764 0.592 56 52 54 0 0
9804.4561 -14213.1934 -143.8281 0.603 0.225 0.765 48 47 50 0 0
9804.7324 -14213.6816 -143.7025 0.608 0.166 0.776 57 53 55 0 0
9805.0459 -14214.1348 -143.5460 0.704 0.366 0.609 55 50 52 0 0
9805.2197 -14214.7197 -143.5038 0.762 0.256 0.595 53 48 52 0 0
9805.4199 -14215.2793 -143.4399 0.849 0.133 0.511 55 51 54 0 0
9805.5264 -14215.9268 -143.4523 0.801 0.203 0.563 55 52 54 0 0
9806.1279 -14216.1094 -143.0616 0.636 0.664 0.394 59 53 52 0 0
9808.4355 -14215.4268 -141.3794 -0.182 0.983 -0.017 54 51 51 0 0
9811.0674 -14214.4297 -139.4322 0.858 0.173 -0.483 60 55 54 0 0
9810.3252 -14215.8789 -140.1363 0.913 -0.381 0.145 60 55 55 0 0
9810.3057 -14216.6445 -140.2512 0.829 -0.521 0.203 54 51 53 0 0
9809.8945 -14217.7822 -140.6854 0.876 -0.424 0.229 51 48 52 0 0
9809.0576 -14219.3281 -141.4676 0.697 0.403 0.594 50 47 54 0 0
9809.5615 -14219.5986 -141.1561 0.805 0.217 0.552 50 46 50 0 0
9810.9062 -14225.0752 -140.9538 0.540 0.807 0.237 71 60 57 0 0
9811.0996 -14225.6436 -140.8960 0.623 0.598 0.503 69 59 57 0 0
9811.1982 -14226.3027 -140.9156 0.226 0.633 0.740 65 56 55 0 0
9812.1064 -14226.9346 -140.3727 0.138 0.846 0.515 57 50 51 0 0
9812.5908 -14227.2197 -140.0765 0.354 0.633 0.688 56 52 53 0 0
9812.7607 -14228.5654 -140.1372 0.877 0.150 0.457 63 53 52 0 0
9838.5596 -14221.1562 -121.3633 -0.351 0.935 0.039 67 56 52 0 0
9834.9229 -14225.5244 -124.4500 -0.013 -0.359 0.933 60 51 49 0 0
9834.1543 -14227.0381 -125.1806 0.150 -0.515 0.844 57 49 49 0 0
9833.0332 -14228.9053 -126.2011 0.201 -0.420 0.885 58 52 52 0 0
9832.7061 -14229.9824 -126.5695 -0.035 0.631 0.775 52 45 48 0 0
9830.4395 -14233.0039 -128.5336 -0.521 0.537 0.663 53 46 47 0 0
9831.3496 -14232.8438 -127.8845 -0.513 0.515 0.687 52 46 48 0 0
9828.5986 -14239.3877 -130.6485 -0.016 -0.235 0.972 50 44 47 0 0
9828.4512 -14240.2949 -130.8707 -0.016 -0.235 0.972 51 44 48 0 0
9828.3027 -14241.2041 -131.0931 -0.016 -0.235 0.972 50 42 45 0 0
9827.9033 -14242.3682 -131.5230 0.081 -0.302 0.950 51 43 45 0 0
9837.7979 -14236.1074 -123.8698 0.416 0.713 -0.564 46 40 44 0 0
9838.8691 -14236.5195 -123.1854 0.375 0.825 -0.423 44 40 43 0 0
9622.5576 -13961.9785 -235.2569 -0.007 0.956 -0.292 148 148 148 0 0
9537.7207 -14020.0293 -301.3793 -0.383 0.914 0.134 149 147 145 0 0
9542.1445 -14018.6494 -298.1487 -0.383 0.914 0.134 155 154 151 0 0
9546.2080 -14017.4346 -295.1884 -0.412 0.890 0.196 147 145 146 0 0
9550.3076 -14016.1973 -292.2006 -0.412 0.890 0.196 133 130 130 0 0
9674.8906 -13989.6553 -202.8575 -0.183 0.872 0.454 136 135 135 0 0
9687.2354 -13987.0820 -194.0121 0.190 0.794 -0.577 142 142 141 0 0
9691.5742 -13985.4492 -190.8068 0.326 0.627 -0.707 144 144 144 0 0
9694.5840 -13984.5078 -188.6086 0.310 0.642 -0.701 144 145 144 0 0
9697.6045 -13983.5547 -186.4018 0.310 0.642 -0.701 134 132 134 0 0
9700.6553 -13982.5820 -184.1711 0.295 0.658 -0.693 131 131 130 0 0
9694.3076 -13986.5518 -189.0690 0.141 0.865 -0.481 136 135 133 0 0
9696.6201 -13985.9668 -187.3983 0.157 0.861 -0.484 132 131 127 0 0
9710.6816 -13979.1768 -176.8132 0.284 0.698 -0.657 139 138 135 0 0
9713.0088 -13978.5684 -175.1292 0.317 0.668 -0.674 131 130 127 0 0
9680.5332 -14049.4727 -206.8741 0.555 -0.636 0.535 183 182 177 0 0
9677.6494 -14051.8701 -209.1775 -0.215 0.743 0.634 181 180 175 0 0
9678.4414 -14052.0830 -208.6599 -0.215 0.743 0.634 181 180 177 0 0
9681.8174 -14050.7520 -206.1580 -0.464 0.849 0.252 181 180 176 0 0
9684.3613 -14049.9131 -204.2945 -0.464 0.849 0.252 179 180 175 0 0
9721.7588 -14101.6250 -185.3613 0.081 -0.485 0.871 103 94 93 0 0
9713.1172 -14112.5723 -192.7622 0.269 0.777 -0.569 71 71 74 0 0
9728.2812 -14104.0596 -181.1894 -0.368 0.324 0.872 152 152 150 0 0
9729.8633 -14103.6455 -180.0443 -0.312 0.255 0.915 156 154 155 0 0
9727.4258 -14110.2646 -182.5983 -0.127 -0.210 0.969 68 58 54 0 0
9717.3975 -14146.9756 -194.3589 0.966 0.232 0.110 64 57 57 0 0
9717.0771 -14148.6816 -194.8051 0.974 0.050 -0.222 59 55 55 0 0
9717.1309 -14156.7432 -195.8334 0.110 0.978 0.176 57 56 55 0 0
9717.8613 -14156.9268 -195.3544 0.269 0.962 -0.050 61 57 55 0 0
9720.1406 -14158.8857 -194.0427 0.668 0.407 0.624 52 51 53 0 0
9720.1230 -14159.6396 -194.1546 0.813 -0.182 0.553 56 55 55 0 0
9720.2158 -14160.3086 -194.1789 0.934 0.193 0.299 58 55 54 0 0
9720.3467 -14160.9492 -194.1734 0.934 0.193 0.299 57 55 54 0 0
9720.3076 -14161.7197 -194.3021 0.969 0.031 0.246 58 56 55 0 0
9728.6514 -14159.7158 -188.2887 -0.320 0.947 -0.032 56 53 54 0 0
9723.9844 -14166.3008 -192.3743 0.468 0.532 -0.706 48 47 49 0 0
9749.5801 -14151.4209 -172.7727 0.424 0.800 -0.424 49 46 48 0 0
9758.5146 -14150.1328 -166.4469 0.826 -0.540 0.158 47 45 47 0 0
9756.7314 -14152.9873 -168.0529 0.390 -0.455 0.800 47 45 50 0 0
9756.6973 -14153.7344 -168.1748 0.548 -0.505 0.667 53 51 54 0 0
9758.1680 -14157.6162 -167.6745 0.884 -0.057 0.464 57 53 52 0 0
9758.1748 -14158.3340 -167.7648 0.843 -0.047 0.535 59 54 56 0 0
9758.0176 -14159.1846 -167.9855 0.620 0.761 0.193 56 52 55 0 0
9753.2285 -14167.4229 -172.3734 0.935 -0.025 0.354 52 50 53 0 0
9753.0342 -14169.0469 -172.7219 0.869 -0.093 0.486 51 49 53 0 0
9760.8711 -14166.3164 -166.9615 0.116 0.934 -0.337 59 52 52 0 0
9758.4443 -14174.1660 -169.6712 0.634 0.519 0.574 52 48 48 0 0
9758.7539 -14174.6455 -169.5212 0.609 0.216 0.763 54 51 52 0 0
9758.9512 -14175.2188 -169.4613 0.500 0.060 0.864 54 50 50 0 0
9758.8213 -14176.0615 -169.6618 0.375 0.009 0.927 55 51 51 0 0
9758.5557 -14177.0186 -169.9713 0.595 -0.422 0.684 51 48 49 0 0
9764.4033 -14180.2490 -166.3695 0.743 -0.652 0.150 46 44 45 0 0
9765.7061 -14179.8896 -165.4240 0.823 -0.187 0.536 49 45 48 0 0
9766.0234 -14181.8350 -165.4627 0.467 0.339 0.816 50 45 49 0 0
9766.3955 -14182.2578 -165.2621 0.204 0.534 0.820 52 47 50 0 0
9771.8262 -14181.3379 -161.3989 0.575 0.361 0.734 57 50 51 0 0
9771.3623 -14183.2041 -161.9651 0.822 -0.477 0.312 57 49 47 0 0
9774.8184 -14183.9316 -159.6799 -0.134 0.801 0.583 57 50 50 0 0
9775.0264 -14184.4893 -159.6101 0.649 0.696 0.309 61 52 50 0 0
9775.9316 -14185.1846 -159.0788 0.853 -0.119 0.509 52 47 47 0 0
9775.6631 -14186.1533 -159.3918 0.703 0.041 0.710 53 48 48 0 0
9775.8311 -14186.7451 -159.3537 0.401 0.496 0.770 51 45 47 0 0
9776.8418 -14187.3477 -158.7373 0.550 0.288 0.784 51 47 48 0 0
9778.6230 -14186.5439 -157.4037 0.940 -0.216 -0.263 57 53 54 0 0
9778.4033 -14187.4717 -157.6778 0.948 -0.101 -0.301 54 50 51 0 0
9778.5234 -14188.1055 -157.6790 0.870 0.080 -0.486 53 49 50 0 0
9777.9141 -14189.3721 -158.2662 0.864 0.064 -0.500 57 52 53 0 0
9782.8281 -14190.9912 -155.0943 0.831 -0.553 0.053 52 48 51 0 0
9787.1104 -14189.4395 -151.9387 0.319 0.755 -0.573 48 46 50 0 0
9788.0664 -14189.3330 -151.2657 0.319 0.755 -0.573 45 43 48 0 0
9788.8809 -14189.3496 -150.7071 0.343 0.758 -0.555 52 47 50 0 0
9789.7705 -14189.2988 -150.0874 0.343 0.758 -0.555 52 47 50 0 0
9784.4365 -14196.9727 -154.7766 -0.339 0.741 0.580 50 46 48 0 0
9789.6855 -14196.0059 -151.0323 0.230 0.846 0.481 54 48 50 0 0
9790.8027 -14200.1885 -150.8150 0.207 -0.429 0.879 55 50 54 0 0
9790.1641 -14201.5059 -151.4290 0.236 -0.541 0.807 49 46 48 0 0
9789.9150 -14202.4746 -151.7288 0.204 -0.493 0.846 52 48 52 0 0
9789.2744 -14203.7969 -152.3451 0.204 -0.493 0.846 50 47 51 0 0
9792.8838 -14207.2334 -150.3121 0.634 -0.622 0.459 53 49 49 0 0
9791.9287 -14208.8525 -151.1840 0.634 -0.622 0.459 53 47 49 0 0
9796.3447 -14208.5430 -148.1011 0.896 -0.052 -0.441 51 47 51 0 0
9796.0537 -14209.5566 -148.4352 0.916 -0.152 -0.371 53 50 53 0 0
9800.2148 -14211.6875 -145.8498 0.438 0.885 -0.157 48 47 51 0 0
9802.0127 -14212.2568 -144.6864 0.466 0.732 0.496 52 49 52 0 0
9803.3652 -14212.4883 -143.7850 -0.247 0.695 0.676 55 50 51 0 0
9804.1914 -14213.2090 -143.3110 0.522 0.628 0.577 53 50 51 0 0
9805.1436 -14216.0537 -143.0306 0.843 0.329 0.425 59 56 57 0 0
9805.6074 -14216.3652 -142.7524 0.256 0.674 0.692 58 52 52 0 0
9808.1387 -14215.4736 -140.8903 -0.182 0.983 -0.017 55 50 51 0 0
9810.3447 -14214.8809 -139.2925 0.914 0.290 0.285 56 51 53 0 0
9810.5176 -14215.4629 -139.2502 0.806 -0.542 0.237 58 53 54 0 0
9809.7285 -14216.9570 -139.9911 0.754 -0.569 0.328 49 47 52 0 0
9809.3926 -14218.0244 -140.3640 0.793 -0.537 0.286 50 47 53 0 0
9808.5898 -14219.5371 -141.1168 0.579 0.156 0.800 52 48 54 0 0
9808.8828 -14220.0088 -140.9775 0.451 -0.350 0.821 47 45 49 0 0
9808.6201 -14223.2646 -141.5888 0.555 -0.013 0.832 56 51 50 0 0
9810.1133 -14224.8457 -140.7685 0.819 0.189 0.542 66 57 55 0 0
9810.6445 -14225.0879 -140.4348 0.392 0.849 0.356 59 51 52 0 0
9810.8330 -14225.6611 -140.3807 0.485 0.685 0.544 62 53 53 0 0
9811.1914 -14226.0684 -140.1872 0.485 0.685 0.544 57 50 52 0 0
9811.5488 -14226.4785 -139.9956 0.171 0.815 0.554 55 47 50 0 0
9811.8818 -14226.9102 -139.8227 0.166 0.744 0.647 55 48 51 0 0
9812.0801 -14227.4736 -139.7604 0.075 0.622 0.779 56 51 54 0 0
9812.3799 -14228.6943 -139.7158 0.872 0.230 0.432 56 50 50 0 0
9810.8682 -14230.9170 -141.0509 0.471 0.882 -0.023 58 50 52 0 0
9811.1465 -14232.1621 -141.0236 0.466 0.884 -0.031 71 60 56 0 0
9835.1406 -14223.5762 -123.3571 0.043 -0.411 0.911 71 59 55 0 0
9834.5479 -14224.9111 -123.9423 0.055 -0.430 0.901 65 55 51 0 0
9833.7998 -14226.4014 -124.6546 0.049 -0.428 0.902 59 50 49 0 0
9832.7549 -14228.1914 -125.6113 0.127 -0.488 0.864 56 49 49 0 0
9832.0820 -14229.6123 -126.2625 0.114 -0.358 0.927 57 50 51 0 0
9831.4834 -14230.9600 -126.8526 0.169 -0.411 0.896 54 47 50 0 0
9831.3447 -14231.8506 -127.0664 0.301 -0.452 0.840 49 43 46 0 0
9830.8691 -14233.0781 -127.5557 0.292 -0.472 0.832 49 44 46 0 0
9829.0205 -14246.3145 -130.5789 0.556 -0.149 0.818 44 40 43 0 0
9829.4375 -14246.6523 -130.3358 0.332 0.787 0.520 40 36 41 0 0
9698.6230 -13985.4287 -185.2552 0.276 0.731 -0.625 137 136 135 0 0
9700.9785 -13984.8145 -183.5531 0.293 0.708 -0.643 138 138 136 0 0
9657.6104 -14017.7422 -217.7435 0.756 0.163 -0.633 124 121 116 0 0
9657.2793 -14019.2627 -218.1712 0.632 -0.590 0.502 121 119 116 0 0
9657.7920 -14019.6562 -217.8701 0.717 -0.279 0.639 120 114 112 0 0
9656.5898 -14021.6553 -218.9614 -0.089 0.949 0.302 141 139 134 0 0
9727.3428 -14104.5498 -181.1854 -0.388 0.434 0.813 154 153 152 0 0
9730.4404 -14127.7324 -182.1085 -0.120 -0.035 0.992 51 49 54 0 0
9730.4619 -14128.4307 -182.1861 0.108 -0.393 0.913 48 48 53 0 0
9722.6094 -14137.0957 -188.7325 0.565 -0.669 0.482 51 50 52 0 0
9721.9619 -14138.2979 -189.3371 0.324 -0.664 0.674 50 48 51 0 0
9717.6650 -14145.8574 -193.2904 0.178 0.028 0.984 54 51 54 0 0
9717.2324 -14156.4746 -194.9878 0.051 0.975 -0.214 57 55 54 0 0
9719.5693 -14156.1748 -193.3399 0.960 0.065 0.271 61 58 57 0 0
9719.9092 -14161.0908 -193.7536 0.970 0.057 -0.236 57 55 55 0 0
9719.2627 -14163.0713 -194.4595 0.936 -0.161 -0.312 55 53 52 0 0
9727.7891 -14160.1895 -188.2106 -0.231 0.972 -0.048 57 53 54 0 0
9749.7207 -14151.1172 -171.9198 0.182 0.976 -0.118 50 45 48 0 0
9761.6357 -14143.8984 -162.7668 0.851 -0.524 0.033 49 48 50 0 0
9760.8838 -14145.2051 -163.4569 0.818 -0.563 0.118 48 47 49 0 0
9758.4912 -14149.9580 -165.7297 0.826 -0.540 0.158 47 45 49 0 0
9755.9395 -14156.3096 -168.3232 -0.079 0.557 0.827 59 52 52 0 0
9757.2930 -14158.8457 -167.7263 0.176 -0.040 0.984 58 53 55 0 0
9757.0205 -14159.7891 -168.0381 -0.059 0.222 0.973 56 51 54 0 0
9753.0117 -14167.3975 -171.7996 0.935 -0.025 0.354 54 49 51 0 0
9759.7227 -14167.7832 -167.2318 0.621 -0.404 0.672 55 47 52 0 0
9758.2988 -14170.4111 -168.5576 0.222 -0.431 0.875 49 44 47 0 0
9758.6670 -14170.8428 -168.3615 0.277 -0.309 0.910 52 48 50 0 0
9760.0332 -14170.4521 -167.3694 0.688 -0.655 0.312 54 50 51 0 0
9758.3516 -14172.5674 -168.8055 0.352 -0.331 0.876 55 53 54 0 0
9758.1543 -14173.4648 -169.0594 0.259 0.409 0.875 54 52 53 0 0
9758.1035 -14174.2422 -169.1971 0.296 0.346 0.890 52 50 50 0 0
9758.1445 -14174.9434 -169.2614 0.253 0.060 0.966 55 52 54 0 0
9758.2598 -14176.3203 -169.3638 0.208 -0.083 0.975 52 48 48 0 0
9758.0205 -14177.2559 -169.6516 0.595 -0.422 0.684 55 50 51 0 0
9766.2305 -14177.7695 -164.0678 0.756 -0.623 0.202 50 46 46 0 0
9764.7295 -14179.7646 -165.3641 0.782 -0.616 0.090 46 45 47 0 0
9765.3779 -14179.9570 -164.9431 0.823 -0.187 0.536 47 45 47 0 0
9765.5361 -14180.5605 -164.9138 0.525 0.428 0.736 51 48 48 0 0
9764.5107 -14182.1621 -165.8311 0.930 0.306 -0.203 47 45 47 0 0
9765.0264 -14183.2051 -165.6134 0.750 0.578 -0.320 50 48 50 0 0
9765.1797 -14183.8145 -165.5879 0.766 0.451 -0.458 54 50 51 0 0
9766.0371 -14184.5664 -165.0967 0.609 0.517 -0.601 50 44 48 0 0
9770.6309 -14183.6162 -161.8096 0.659 -0.506 0.557 57 49 48 0 0
9772.1406 -14183.8018 -160.7948 -0.310 0.902 0.300 52 47 51 0 0
9774.2207 -14184.2324 -159.4202 -0.169 0.745 0.646 55 50 49 0 0
9775.3955 -14185.4326 -158.7699 0.916 -0.043 0.399 57 50 49 0 0
9775.4004 -14186.1650 -158.8625 0.916 -0.043 0.399 50 45 48 0 0
9775.2939 -14186.9951 -159.0454 0.931 0.084 0.356 49 43 46 0 0
9779.0938 -14185.9229 -156.2884 0.941 -0.170 -0.292 53 48 49 0 0
9779.0830 -14186.6680 -156.3947 0.863 0.061 -0.501 50 47 48 0 0
9779.0752 -14187.4111 -156.4973 0.863 0.061 -0.501 52 48 49 0 0
9786.6348 -14199.2490 -152.8547 -0.195 -0.153 0.969 49 46 49 0 0
9788.5469 -14198.2812 -151.4105 -0.156 0.098 0.983 51 48 50 0 0
9789.7129 -14200.9463 -150.9595 0.159 -0.416 0.895 53 49 53 0 0
9789.3184 -14202.0449 -151.3758 0.304 -0.572 0.762 51 48 50 0 0
9788.9824 -14203.0908 -151.7446 0.305 -0.531 0.790 53 50 51 0 0
9788.2959 -14204.4551 -152.3969 0.305 -0.531 0.790 53 50 53 0 0
9787.1514 -14206.2354 -153.4194 0.427 -0.600 0.677 49 45 50 0 0
9792.0664 -14207.7520 -150.2365 0.669 -0.665 0.332 50 45 49 0 0
9794.7666 -14209.0166 -148.5446 -0.161 0.942 -0.295 53 48 51 0 0
9797.0283 -14207.6875 -146.8127 0.896 -0.052 -0.441 50 45 48 0 0
9796.6924 -14208.7412 -147.1824 0.917 -0.112 -0.382 52 47 51 0 0
9796.0566 -14210.0723 -147.7954 0.871 -0.490 0.040 52 49 51 0 0
9795.2539 -14211.5596 -148.5442 0.871 -0.490 0.040 48 45 48 0 0
9796.4932 -14211.1650 -147.6391 0.280 0.937 0.211 47 45 48 0 0
9799.9619 -14211.6924 -145.3209 0.328 0.910 -0.252 50 48 51 0 0
9804.9844 -14214.4746 -142.2305 0.943 -0.213 0.257 56 51 53 0 0
9804.7236 -14215.4678 -142.5411 0.812 -0.286 0.508 54 51 53 0 0
9804.4443 -14216.4785 -142.8661 0.862 -0.283 0.422 52 49 50 0 0
9804.5635 -14217.1152 -142.8683 0.701 0.213 0.681 55 50 52 0 0
9807.0762 -14216.2432 -141.0242 0.707 0.620 -0.342 53 50 52 0 0
9809.5146 -14215.4316 -139.2383 0.327 -0.332 0.885 55 50 53 0 0
9809.5029 -14216.1895 -139.3462 0.427 -0.396 0.813 50 47 50 0 0
9809.0889 -14217.3291 -139.7814 0.446 -0.443 0.778 48 46 51 0 0
9808.7031 -14218.4443 -140.1942 0.446 -0.443 0.778 48 46 50 0 0
9808.5977 -14219.2939 -140.3789 0.324 -0.373 0.870 50 47 50 0 0
9808.1230 -14220.4951 -140.8635 0.316 -0.402 0.859 48 45 49 0 0
9807.9932 -14223.6270 -141.3661 0.452 -0.063 0.890 57 54 54 0 0
9811.3848 -14221.1328 -138.7027 0.930 -0.244 -0.275 50 47 49 0 0
9809.6123 -14224.3340 -140.3446 0.869 -0.115 0.482 57 49 51 0 0
9809.6211 -14225.0791 -140.4366 0.854 -0.071 0.515 54 47 51 0 0
9810.4453 -14225.7939 -139.9637 0.642 0.657 0.396 55 47 51 0 0
9810.7939 -14226.2119 -139.7786 0.684 0.534 0.497 52 45 52 0 0
9811.0586 -14226.7109 -139.6620 0.242 0.739 0.628 52 46 50 0 0
9811.3857 -14227.1494 -139.4948 0.280 0.752 0.597 50 46 49 0 0
9811.5498 -14227.7461 -139.4604 0.155 0.667 0.728 53 47 51 0 0
9810.7090 -14230.8291 -140.4458 0.567 0.793 -0.220 54 49 52 0 0
9810.9785 -14232.0830 -140.4250 0.536 0.839 -0.097 66 57 55 0 0
9832.8418 -14225.6201 -124.5248 0.492 -0.073 0.868 65 55 53 0 0
9832.9033 -14226.3047 -124.5725 0.259 -0.240 0.936 61 52 51 0 0
9832.5107 -14227.4434 -124.9933 0.035 -0.384 0.923 57 51 51 0 0
9831.8721 -14228.8281 -125.6155 0.057 -0.411 0.910 55 48 49 0 0
9831.2754 -14230.1729 -126.2034 -0.028 -0.297 0.954 52 46 47 0 0
9830.5439 -14231.6543 -126.9016 -0.086 -0.278 0.957 50 42 43 0 0
9829.8115 -14233.1396 -127.6019 0.210 -0.514 0.832 47 41 44 0 0
9828.9453 -14234.7607 -128.4117 0.153 -0.498 0.854 49 44 48 0 0
9828.5723 -14235.8896 -128.8172 0.287 -0.592 0.753 49 44 47 0 0
9826.7910 -14238.4346 -130.3782 0.308 -0.610 0.730 47 42 43 0 0
9825.3340 -14240.6582 -131.6742 0.330 -0.620 0.712 48 43 44 0 0
9823.6416 -14243.1230 -133.1644 -0.321 0.935 0.150 48 42 44 0 0
9829.1240 -14246.7178 -129.8640 0.146 0.934 0.327 40 36 40 0 0
9702.7705 -13983.7539 -181.4916 0.267 0.743 -0.613 89 86 80 0 0
9704.8945 -13983.2578 -179.9658 0.267 0.743 -0.613 84 80 75 0 0
9658.5840 -14017.0918 -216.2574 0.791 0.130 -0.597 103 98 94 0 0
9656.2959 -14018.9990 -218.0812 0.774 -0.063 -0.630 116 110 107 0 0
9673.5703 -14027.5693 -207.3294 -0.110 0.961 -0.254 148 142 142 0 0
9683.0215 -14025.5645 -200.5665 -0.140 0.964 -0.226 170 169 169 0 0
9709.1494 -14089.6514 -191.0236 -0.580 0.419 0.699 162 159 156 0 0
9721.2549 -14105.8428 -184.8271 -0.570 0.401 0.717 148 147 145 0 0
9720.5234 -14123.3486 -187.6311 0.582 0.675 -0.453 74 64 61 0 0
9724.3447 -14128.4443 -185.6733 -0.416 0.869 0.270 49 49 51 0 0
9726.1104 -14127.8701 -184.3834 -0.455 0.789 0.413 51 50 52 0 0
9717.7451 -14144.1504 -192.2752 0.317 -0.628 0.711 50 49 50 0 0
9716.8643 -14146.2676 -193.1592 0.247 0.001 0.969 58 55 55 0 0
9715.1377 -14156.3916 -195.6773 0.818 -0.570 0.076 59 58 54 0 0
9714.8457 -14157.3535 -196.0045 0.924 -0.348 -0.159 58 58 58 0 0
9716.8867 -14156.5449 -194.4947 0.044 0.978 -0.204 58 56 56 0 0
9719.6494 -14155.1846 -192.4162 0.962 -0.059 0.266 57 53 52 0 0
9719.6621 -14155.9121 -192.5033 0.833 0.003 0.553 56 53 52 0 0
9720.0176 -14160.0732 -192.8058 0.995 -0.017 -0.097 59 56 56 0 0
9720.0820 -14160.7637 -192.8520 0.984 0.025 -0.179 62 59 58 0 0
9719.7646 -14162.4902 -193.2975 0.968 -0.140 -0.207 56 52 53 0 0
9720.1250 -14162.9551 -193.1106 0.938 -0.345 -0.030 54 53 55 0 0
9725.2705 -14161.2061 -189.3424 -0.361 0.932 0.023 61 57 58 0 0
9727.0713 -14160.5508 -188.0181 -0.356 0.934 0.021 54 51 52 0 0
9727.8340 -14162.9121 -187.8041 0.456 0.535 -0.711 47 45 47 0 0
9762.8037 -14142.0781 -161.0195 0.669 -0.679 0.303 47 44 47 0 0
9762.1123 -14143.3330 -161.6599 0.688 -0.651 0.320 45 43 46 0 0
9761.4756 -14144.5469 -162.2570 0.406 -0.683 0.607 45 42 45 0 0
9759.9014 -14146.5020 -163.5963 0.614 -0.628 0.478 50 46 49 0 0
9758.8545 -14148.0439 -164.5194 0.616 -0.645 0.451 55 51 52 0 0
9757.9482 -14149.4775 -165.3307 0.616 -0.645 0.451 50 46 48 0 0
9758.0098 -14150.1465 -165.3766 0.657 -0.611 0.442 50 48 50 0 0
9753.3105 -14159.6641 -169.8585 -0.198 -0.105 0.975 58 52 52 0 0
9754.2988 -14163.9648 -169.7442 -0.278 -0.121 0.953 49 46 47 0 0
9752.8018 -14167.3662 -171.2207 0.870 -0.135 0.474 49 45 47 0 0
9757.9160 -14169.7900 -168.0227 -0.073 -0.258 0.963 53 48 50 0 0
9757.5010 -14170.8623 -168.4486 0.084 -0.397 0.914 51 47 50 0 0
9757.9648 -14171.2148 -168.1763 0.153 -0.245 0.957 56 52 54 0 0
9759.4385 -14170.7373 -167.1000 0.650 -0.646 0.399 55 52 52 0 0
9757.5986 -14172.9824 -168.6601 0.352 -0.331 0.876 53 51 51 0 0
9757.4951 -14173.8027 -168.8392 0.275 0.133 0.952 57 55 56 0 0
9757.5469 -14174.4951 -168.8945 0.393 -0.020 0.919 60 56 58 0 0
9755.1484 -14180.1699 -171.2899 0.878 -0.332 -0.344 61 56 56 0 0
9768.0791 -14174.5479 -161.6598 0.709 -0.640 0.297 57 51 51 0 0
9767.3154 -14175.9189 -162.3649 0.750 -0.613 0.248 53 47 47 0 0
9766.3623 -14177.4512 -163.2213 0.763 -0.610 0.212 52 47 49 0 0
9765.5605 -14178.8594 -163.9581 0.787 -0.586 0.193 48 45 48 0 0
9765.0498 -14180.0234 -164.4621 0.823 -0.187 0.536 48 44 47 0 0
9764.3877 -14181.3184 -165.0879 0.685 0.592 -0.425 47 45 46 0 0
9764.5928 -14181.8838 -165.0211 0.908 0.297 -0.294 44 43 44 0 0
9764.9570 -14182.3145 -164.8271 0.816 0.434 -0.383 47 46 48 0 0
9765.2109 -14182.8389 -164.7215 0.759 0.472 -0.449 50 46 49 0 0
9765.6230 -14183.2285 -164.4892 0.789 0.298 -0.537 56 50 53 0 0
9766.6494 -14183.8369 -163.8635 0.504 0.654 -0.565 47 41 46 0 0
9768.3760 -14183.1104 -162.5805 0.031 0.995 -0.099 48 43 48 0 0
9770.6963 -14182.6123 -160.9194 0.363 -0.251 0.897 59 51 49 0 0
9770.6582 -14183.3818 -161.0471 0.571 -0.340 0.748 54 48 49 0 0
9770.4561 -14184.2910 -161.3058 0.571 -0.340 0.748 52 47 49 0 0
9773.5820 -14184.5674 -159.1925 -0.192 0.797 0.573 57 51 49 0 0
9774.9092 -14184.9014 -158.3235 0.515 0.526 0.677 56 50 48 0 0
9774.9697 -14185.5859 -158.3721 0.688 0.070 0.722 60 51 51 0 0
9775.1758 -14186.1455 -158.3040 0.898 0.041 0.437 50 45 46 0 0
9775.2324 -14186.8340 -158.3557 0.898 0.041 0.437 46 41 45 0 0
9776.9189 -14187.5908 -157.2952 0.444 -0.153 0.883 48 45 47 0 0
9777.1514 -14188.1270 -157.2060 0.591 0.541 0.598 49 45 47 0 0
9779.7686 -14186.5957 -155.2050 0.863 0.061 -0.501 49 45 46 0 0
9779.5137 -14187.5527 -155.5056 0.868 -0.031 -0.496 53 49 48 0 0
9785.2832 -14199.4912 -153.1078 -0.191 -0.178 0.965 51 47 50 0 0
9785.1797 -14200.3262 -153.2884 -0.171 -0.195 0.966 46 45 47 0 0
9785.2129 -14201.0410 -153.3598 -0.229 -0.146 0.962 50 48 51 0 0
9786.0791 -14201.0098 -152.7599 -0.491 0.370 0.788 51 48 49 0 0
9786.8213 -14201.0898 -152.2604 -0.491 0.370 0.788 54 50 51 0 0
9787.5713 -14201.1611 -151.7540 -0.499 0.396 0.771 53 48 51 0 0
9788.7344 -14201.6035 -151.0124 0.079 -0.400 0.913 52 49 53 0 0
9788.3242 -14202.7158 -151.4401 0.252 -0.590 0.767 49 48 50 0 0
9787.3701 -14204.3203 -152.3075 0.201 -0.514 0.834 52 49 52 0 0
9787.3076 -14205.1221 -152.4554 0.249 -0.408 0.878 51 49 52 0 0
9791.7910 -14207.7764 -149.7217 0.679 -0.661 0.319 51 47 49 0 0
9790.4414 -14210.5049 -151.0084 0.673 -0.601 0.430 47 44 47 0 0
9797.1689 -14207.3301 -145.9650 0.945 -0.220 -0.241 46 42 46 0 0
9796.9482 -14208.2773 -146.2414 0.716 -0.644 0.269 50 45 50 0 0
9795.6143 -14210.2500 -147.4176 0.716 -0.644 0.269 51 47 51 0 0
9797.5010 -14209.2607 -145.9906 0.934 -0.169 -0.315 45 43 46 0 0
9799.9121 -14211.5088 -144.6279 0.259 0.961 -0.096 51 48 51 0 0
9800.7275 -14211.4971 -144.0653 0.313 0.852 0.420 50 48 51 0 0
9801.5283 -14211.5000 -143.5155 0.633 0.481 0.607 54 52 55 0 0
9804.1650 -14215.0107 -142.1635 0.855 -0.465 0.229 56 51 52 0 0
9804.4043 -14215.5352 -142.0682 0.812 -0.286 0.508 50 47 49 0 0
9804.2324 -14216.4443 -142.3057 0.812 -0.286 0.508 50 45 49 0 0
9804.5029 -14216.9385 -142.1844 0.314 0.185 0.931 52 49 51 0 0
9806.5986 -14216.4600 -140.6806 0.184 0.982 0.035 51 47 51 0 0
9807.4551 -14216.3994 -140.0837 0.227 0.947 -0.227 54 49 52 0 0
9808.6494 -14216.0166 -139.2122 0.392 -0.226 0.892 53 48 52 0 0
9808.6455 -14216.7676 -139.3137 0.618 -0.459 0.638 49 46 50 0 0
9808.4561 -14217.6953 -139.5661 0.601 -0.449 0.661 49 47 50 0 0
9808.1279 -14218.7549 -139.9310 0.533 -0.384 0.754 48 46 48 0 0
9808.1660 -14219.4678 -139.9981 0.867 -0.003 0.499 46 45 47 0 0
9807.4238 -14220.9238 -140.7000 0.904 -0.325 0.276 46 44 47 0 0
9812.5107 -14219.8193 -137.0572 0.906 -0.363 -0.219 54 49 51 0 0
9810.2529 -14225.7393 -139.3873 0.729 0.616 0.298 52 46 48 0 0
9810.5752 -14226.1836 -139.2244 0.823 0.553 0.127 49 43 47 0 0
9811.0664 -14226.4639 -138.9235 0.731 0.471 0.495 50 45 49 0 0
9811.3203 -14226.9727 -138.8153 0.731 0.471 0.495 52 46 51 0 0
9811.4004 -14227.6494 -138.8496 0.518 0.549 0.656 53 47 50 0 0
9812.0947 -14227.7324 -138.3829 -0.077 0.909 0.410 50 46 49 0 0
9812.3594 -14228.2305 -138.2661 0.359 0.928 0.101 50 47 51 0 0
9812.5137 -14228.8369 -138.2403 0.597 0.775 -0.207 52 47 50 0 0
9832.2676 -14225.9482 -124.2767 0.477 -0.072 0.876 62 53 51 0 0
9831.8594 -14227.1016 -124.7095 0.340 -0.357 0.870 56 48 47 0 0
9831.7227 -14227.9844 -124.9191 0.275 -0.302 0.913 52 45 47 0 0
9830.5410 -14229.9111 -125.9853 0.087 -0.387 0.918 52 47 49 0 0
9830.0957 -14231.1064 -126.4485 0.200 -0.360 0.911 50 44 46 0 0
9829.2344 -14232.7178 -127.2522 0.049 -0.355 0.934 51 42 45 0 0
