ply
format ascii 1.0
element vertex 736
property float x
property float y
property float z
property float nx
property float ny
property float nz
property uchar diffuse_red
property uchar diffuse_green
property uchar diffuse_blue
property uchar class
property uchar detection
end_header
9549.7246 -14503.2646 -181.7880 -0.431 0.807 -0.404 99 104 108 0 0
9551.3076 -14502.1777 -180.6941 -0.602 0.749 -0.278 102 111 114 0 0
9554.4639 -14498.7861 -178.3653 -0.609 0.749 -0.261 110 117 122 0 0
9557.9150 -14494.9551 -175.8042 -0.671 0.742 -0.001 99 106 111 0 0
9560.0879 -14492.9873 -174.2449 -0.671 0.742 -0.001 94 99 103 0 0
9561.7383 -14491.7803 -173.0955 -0.698 0.686 0.205 66 68 71 0 0
9563.5234 -14490.3730 -171.8401 -0.670 0.661 0.339 63 61 62 0 0
9565.0547 -14489.3340 -170.7831 -0.681 0.649 0.338 90 81 74 0 0
9566.1221 -14488.9746 -170.0902 -0.678 0.560 0.476 112 99 86 0 0
9567.2803 -14488.4805 -169.3258 -0.677 0.591 0.440 118 103 89 0 0
9569.0518 -14487.0771 -168.0786 -0.641 0.551 0.534 120 102 88 0 0
9567.0010 -14491.3174 -169.8366 -0.522 0.184 0.833 119 100 88 0 0
9566.4121 -14493.4033 -170.4457 -0.698 0.301 0.649 123 104 91 0 0
9568.8516 -14491.0117 -168.6735 -0.520 0.127 0.845 125 105 91 0 0
9568.9580 -14492.0703 -168.7358 -0.531 0.138 0.836 124 108 93 0 0
9569.5928 -14492.3477 -168.3829 -0.319 -0.024 0.947 99 101 94 0 0
9569.7539 -14493.3271 -168.4025 -0.467 0.122 0.876 78 87 86 0 0
9570.2783 -14493.7666 -168.1356 -0.662 0.349 0.664 106 100 92 0 0
9571.5186 -14493.1426 -167.3059 -0.685 0.409 0.604 121 114 108 0 0
9571.8994 -14493.7969 -167.1526 -0.504 0.189 0.843 125 121 116 0 0
9573.1982 -14493.0820 -166.2763 -0.519 0.162 0.839 121 115 114 0 0
9575.9648 -14491.3916 -164.3889 -0.520 0.200 0.830 88 86 79 0 0
9573.6377 -14496.0977 -166.3709 0.368 0.515 0.775 112 104 93 0 0
9573.9844 -14496.8057 -166.2450 0.036 0.897 0.441 109 102 88 0 0
9573.7471 -14498.3896 -166.5795 -0.465 0.875 -0.134 105 96 87 0 0
9574.8691 -14497.9346 -165.8419 -0.488 0.859 -0.154 169 171 168 0 0
9576.3867 -14496.8848 -164.7922 -0.488 0.859 -0.154 147 151 156 0 0
9577.8994 -14495.8369 -163.7452 -0.488 0.859 -0.154 151 154 155 0 0
9574.8965 -14501.5928 -166.2646 -0.362 0.149 0.920 156 157 159 0 0
9575.9961 -14501.1709 -165.5448 0.524 -0.298 0.798 159 160 162 0 0
9552.8984 -14543.7090 -184.7151 0.068 0.515 -0.854 144 150 152 0 0
9577.8945 -14513.2373 -165.8391 -0.162 0.682 -0.713 79 83 94 0 0
9583.2666 -14507.5176 -161.8819 -0.508 0.841 0.188 47 55 68 0 0
9584.8340 -14506.3643 -160.7892 -0.425 0.658 0.622 52 59 68 0 0
9585.6631 -14506.3398 -160.2815 -0.488 0.695 0.528 65 70 78 0 0
9586.9014 -14505.6875 -159.4497 -0.321 0.541 0.778 101 107 111 0 0
9587.6172 -14505.8359 -159.0316 -0.326 0.478 0.816 84 85 92 0 0
9588.4141 -14505.8594 -158.5494 -0.457 0.612 0.646 81 82 89 0 0
9588.9814 -14506.2354 -158.2493 -0.580 0.610 0.540 90 88 89 0 0
9589.9639 -14505.9707 -157.6193 -0.365 0.547 0.754 115 114 115 0 0
9590.7568 -14505.9971 -157.1397 -0.408 0.452 0.793 146 150 152 0 0
9591.5527 -14506.0195 -156.6580 -0.532 0.583 0.614 125 135 148 0 0
9592.7969 -14505.3447 -155.8196 -0.564 0.528 0.635 91 100 114 0 0
9593.7861 -14505.0625 -155.1834 -0.599 0.550 0.582 73 81 91 0 0
9595.1475 -14504.2031 -154.2517 -0.657 0.562 0.502 72 77 84 0 0
9601.3330 -14502.0781 -150.2308 -0.448 0.749 -0.488 78 79 81 0 0
9604.0293 -14499.1104 -148.2335 -0.472 0.743 -0.474 83 86 89 0 0
9608.9854 -14492.5889 -144.4332 -0.501 0.219 0.837 52 57 61 0 0
9606.6328 -14497.5283 -146.4586 0.675 0.268 -0.687 71 70 65 0 0
9606.7461 -14502.3691 -146.9710 -0.158 0.879 -0.450 93 88 75 0 0
9607.8604 -14501.8691 -146.2330 -0.270 0.899 -0.344 97 96 88 0 0
9609.2744 -14500.8916 -145.2544 -0.302 0.871 -0.388 95 94 87 0 0
9610.8359 -14499.6787 -144.1582 -0.386 0.816 -0.430 76 76 74 0 0
9612.3994 -14498.4590 -143.0599 -0.449 0.799 -0.399 78 77 77 0 0
9614.1582 -14496.9268 -141.8055 -0.452 0.807 -0.381 78 78 81 0 0
9616.1611 -14495.0010 -140.3546 -0.502 0.794 -0.344 78 79 80 0 0
9619.3779 -14491.1387 -137.9324 -0.673 0.652 0.349 80 81 82 0 0
9620.9756 -14489.8457 -136.8048 -0.505 0.862 -0.040 88 84 84 0 0
9621.9404 -14489.5576 -136.1828 -0.462 0.499 0.733 87 81 81 0 0
9623.0166 -14489.0898 -135.4716 -0.406 0.914 -0.022 89 86 87 0 0
9623.3320 -14489.8369 -135.3695 -0.519 0.646 0.560 91 85 87 0 0
9624.3398 -14489.4766 -134.7128 -0.402 0.563 0.722 84 83 88 0 0
9625.1562 -14489.4199 -134.2087 -0.454 0.653 0.607 84 80 84 0 0
9625.6211 -14489.9258 -133.9864 -0.435 0.522 0.734 88 84 84 0 0
9626.6504 -14489.5283 -133.3125 -0.464 0.527 0.712 86 85 87 0 0
9627.1943 -14492.4189 -133.3288 -0.283 -0.045 0.958 89 87 91 0 0
9627.8682 -14492.5908 -132.9392 -0.379 0.097 0.920 97 95 98 0 0
9628.8145 -14492.3223 -132.3308 -0.363 0.150 0.920 99 97 98 0 0
9629.0664 -14493.1758 -132.2801 -0.453 0.196 0.870 99 99 98 0 0
9629.6924 -14493.4238 -131.9288 -0.504 0.274 0.819 91 92 93 0 0
9630.7920 -14492.9023 -131.1964 -0.426 0.262 0.866 91 91 90 0 0
9631.4570 -14493.0859 -130.8136 -0.426 0.262 0.866 94 93 94 0 0
9633.2773 -14492.6562 -129.6543 -0.535 0.328 0.778 89 87 73 0 0
9633.4199 -14493.6875 -129.6912 -0.507 0.821 0.262 80 79 63 0 0
9630.6816 -14499.4160 -132.0466 -0.275 0.682 -0.678 82 78 61 0 0
9616.9561 -14529.6133 -144.0293 -0.774 0.625 0.105 40 41 42 0 0
9618.6914 -14528.0732 -142.7879 -0.736 0.615 0.284 50 51 53 0 0
9621.3281 -14525.0469 -140.8196 -0.780 0.572 0.253 56 56 57 0 0
9624.1729 -14521.6689 -138.6819 -0.800 0.547 0.249 60 60 60 0 0
9628.0889 -14516.5166 -135.6794 -0.803 0.548 0.233 56 57 59 0 0
9629.3848 -14516.9736 -134.9449 -0.600 0.374 0.707 71 70 72 0 0
9635.9912 -14507.3428 -129.7667 -0.636 0.411 0.654 72 71 73 0 0
9639.1934 -14503.3281 -127.3353 -0.665 0.582 0.468 72 70 73 0 0
9641.2031 -14501.2803 -125.8660 -0.661 0.670 0.337 79 77 79 0 0
9643.9902 -14499.2178 -123.9216 -0.644 0.758 0.106 83 83 85 0 0
9644.7246 -14499.2783 -123.4818 -0.351 0.716 0.603 88 89 92 0 0
9645.4580 -14499.3389 -123.0423 0.409 0.348 0.844 90 91 95 0 0
9655.8848 -14501.1494 -116.9134 -0.682 0.324 0.655 86 87 72 0 0
9657.1562 -14500.2861 -116.0353 -0.506 0.192 0.841 87 85 65 0 0
9657.8535 -14500.3965 -115.6242 -0.533 0.217 0.818 94 90 68 0 0
9655.7373 -14505.2959 -117.5010 -0.247 0.865 -0.438 92 88 68 0 0
9659.3018 -14500.5234 -114.7579 -0.607 0.451 0.655 85 84 65 0 0
9659.8018 -14500.9688 -114.5069 -0.258 0.316 0.913 85 84 65 0 0
9664.3496 -14500.9824 -111.7404 -0.539 0.272 0.797 69 72 57 0 0
9665.2227 -14500.7832 -111.1849 -0.560 0.257 0.787 68 71 54 0 0
9666.2061 -14500.3945 -110.5401 -0.381 0.108 0.918 68 71 53 0 0
9667.0732 -14500.2021 -109.9886 -0.376 0.194 0.906 67 69 53 0 0
9667.6602 -14500.4932 -109.6663 -0.332 0.168 0.928 68 69 65 0 0
9669.7168 -14503.4717 -108.7724 -0.131 0.693 0.709 112 113 116 0 0
9670.6299 -14505.8242 -108.4995 -0.454 0.669 0.588 111 115 117 0 0
9671.5654 -14505.5088 -107.8919 -0.097 0.079 0.992 78 83 86 0 0
9673.0166 -14505.6074 -107.0207 -0.269 0.801 0.535 100 106 107 0 0
9673.4004 -14506.2539 -106.8642 -0.480 0.819 0.314 106 110 111 0 0
9674.1807 -14506.2061 -106.3838 -0.248 0.715 0.654 101 104 103 0 0
9675.5898 -14509.0225 -105.8644 0.525 -0.038 0.850 62 64 66 0 0
9675.5693 -14510.3857 -106.0404 0.182 0.079 0.980 60 60 61 0 0
9676.5801 -14509.9307 -105.3706 -0.507 0.287 0.813 58 59 61 0 0
9677.3145 -14509.9619 -104.9276 -0.629 0.379 0.679 72 72 72 0 0
9678.1377 -14509.8350 -104.4111 -0.573 0.336 0.748 75 73 72 0 0
9678.9229 -14509.7734 -103.9255 -0.464 0.261 0.846 68 65 65 0 0
9679.6875 -14509.7480 -103.4572 -0.421 0.206 0.883 54 55 55 0 0
9680.3076 -14509.9785 -103.1073 -0.421 0.206 0.883 64 66 66 0 0
9681.3652 -14509.4307 -102.3979 -0.551 0.370 0.748 102 101 102 0 0
9682.2119 -14509.2549 -101.8613 -0.551 0.370 0.748 96 97 99 0 0
9683.4990 -14508.2930 -100.9620 -0.646 0.547 0.533 93 94 94 0 0
9677.2207 -14530.3457 -107.4335 -0.723 0.643 -0.251 59 60 59 0 0
9680.5586 -14525.6904 -104.8422 -0.765 0.620 -0.172 60 60 58 0 0
9684.7900 -14519.4102 -101.5122 -0.761 0.627 -0.167 64 63 59 0 0
9685.7314 -14519.0625 -100.8973 -0.718 0.662 -0.214 63 62 58 0 0
9693.0791 -14509.7988 -95.3116 -0.626 0.383 0.679 64 63 62 0 0
9694.6924 -14508.2148 -94.1396 -0.618 0.521 0.589 73 73 69 0 0
9696.4307 -14506.3955 -92.8625 -0.715 0.658 0.237 74 73 65 0 0
9697.0957 -14506.5283 -92.4739 -0.634 0.713 0.298 67 68 60 0 0
9697.9971 -14506.2295 -91.8895 -0.186 0.487 0.853 58 63 55 0 0
9702.7598 -14512.3506 -89.7256 -0.148 0.583 0.799 61 66 70 0 0
9704.1973 -14512.4102 -88.8576 -0.301 0.431 0.851 40 43 48 0 0
9704.5117 -14513.1895 -88.7598 -0.573 0.553 0.605 65 65 68 0 0
9707.7021 -14514.0781 -86.9244 -0.355 0.421 0.835 48 50 55 0 0
9707.7422 -14515.3721 -87.0555 0.590 0.034 0.807 59 60 62 0 0
9708.6660 -14515.0146 -86.4503 0.027 0.463 0.886 65 65 63 0 0
9709.8711 -14514.1279 -85.6101 -0.644 0.450 0.619 72 68 67 0 0
9708.5703 -14517.9424 -86.8605 -0.814 0.492 0.308 68 64 62 0 0
9713.3193 -14513.1357 -83.3924 -0.631 0.439 0.639 133 131 129 0 0
9714.1904 -14512.8672 -82.8298 -0.667 0.516 0.538 146 144 137 0 0
9716.1465 -14516.0508 -82.0217 -0.136 -0.031 0.990 67 74 80 0 0
9716.0830 -14517.5527 -82.2404 -0.177 -0.028 0.984 102 113 122 0 0
9716.8818 -14517.4180 -81.7378 -0.348 0.254 0.903 110 124 133 0 0
9717.9170 -14516.8330 -81.0378 -0.300 0.485 0.821 116 128 134 0 0
9718.5469 -14517.0166 -80.6764 -0.213 0.446 0.870 106 120 129 0 0
9719.8066 -14515.9971 -79.7870 -0.333 0.291 0.897 122 123 126 0 0
9720.3350 -14516.3740 -79.5109 -0.443 0.443 0.779 159 148 140 0 0
9720.7393 -14516.9863 -79.3379 -0.450 0.569 0.688 160 150 141 0 0
9721.4834 -14516.9502 -78.8810 -0.450 0.569 0.688 149 141 133 0 0
9724.0742 -14518.9268 -77.5412 -0.143 0.768 0.625 212 166 93 0 0
9724.7246 -14519.0674 -77.1624 -0.312 0.918 0.247 191 147 80 0 0
9725.4268 -14519.1064 -76.7393 -0.453 0.870 0.194 164 119 59 0 0
9727.1973 -14518.4736 -75.5857 -0.598 0.598 0.534 190 147 82 0 0
9729.2891 -14518.6094 -74.3286 -0.220 0.407 0.887 133 132 124 0 0
9729.7900 -14519.0361 -74.0752 -0.328 0.349 0.878 112 110 107 0 0
9730.2275 -14519.5850 -73.8745 0.500 0.210 0.840 83 81 81 0 0
9731.8047 -14523.5410 -73.3902 0.411 0.543 0.732 125 113 94 0 0
9732.3936 -14523.7969 -73.0621 0.010 0.974 0.225 128 115 95 0 0
9736.4658 -14520.0156 -70.1294 -0.806 0.289 0.517 128 118 108 0 0
9740.6318 -14513.1963 -66.7738 -0.446 -0.042 0.894 128 119 108 0 0
9738.9326 -14522.2109 -68.8915 0.350 0.006 0.937 124 111 94 0 0
9739.6953 -14523.5352 -68.5862 -0.594 0.674 0.440 124 111 95 0 0
9742.0947 -14523.0205 -67.0639 -0.543 0.251 0.801 123 106 93 0 0
9742.9307 -14522.7744 -66.5256 -0.574 0.291 0.765 119 106 92 0 0
9743.9199 -14522.2188 -65.8567 -0.596 0.310 0.741 110 102 89 0 0
9744.6152 -14522.2500 -65.4372 -0.545 0.294 0.785 119 114 111 0 0
9745.1250 -14522.6523 -65.1751 -0.544 0.354 0.761 113 111 112 0 0
9745.8584 -14522.6074 -64.7235 -0.336 0.248 0.909 112 112 114 0 0
9746.9229 -14526.1914 -64.5061 0.383 0.158 0.910 90 93 97 0 0
9737.5137 -14554.0381 -73.5788 -0.320 0.252 0.913 109 115 119 0 0
9737.3994 -14555.7520 -73.8545 0.517 -0.158 0.841 104 109 111 0 0
9736.9717 -14558.1084 -74.3978 0.878 -0.095 0.469 99 107 109 0 0
9736.5938 -14560.3691 -74.8993 0.897 -0.097 0.430 104 112 114 0 0
9737.1865 -14562.1387 -74.7513 0.962 0.127 0.241 100 106 107 0 0
9738.2627 -14561.4229 -74.0100 0.049 0.905 -0.422 98 105 107 0 0
9739.1377 -14561.1201 -73.4414 -0.214 0.960 -0.182 104 109 112 0 0
9742.4854 -14575.3232 -73.1099 -0.748 0.563 0.353 148 154 154 0 0
9744.4717 -14572.6846 -71.5837 -0.581 0.199 0.789 101 104 107 0 0
9745.1191 -14572.8525 -71.2101 -0.402 0.045 0.915 89 90 94 0 0
9745.7012 -14573.1553 -70.8917 -0.404 0.108 0.908 79 84 87 0 0
9746.2500 -14573.5293 -70.6028 -0.404 0.108 0.908 97 99 103 0 0
9747.1055 -14573.2559 -70.0492 -0.188 -0.003 0.982 114 117 121 0 0
9747.2197 -14574.5459 -70.1347 -0.082 -0.043 0.996 89 95 98 0 0
9747.3916 -14575.7158 -70.1706 -0.082 -0.043 0.996 86 94 96 0 0
9747.4727 -14577.0801 -70.2849 -0.340 0.612 0.714 86 94 97 0 0
9545.4443 -14505.3447 -183.7544 -0.333 0.645 0.688 87 87 89 0 0
9545.5625 -14506.3965 -183.8078 -0.389 0.916 -0.094 107 110 113 0 0
9547.6309 -14504.6094 -182.3359 -0.506 0.811 -0.293 115 122 125 0 0
9550.0029 -14502.3760 -180.6258 -0.578 0.790 -0.205 106 115 120 0 0
9552.6045 -14499.8008 -178.7356 -0.654 0.754 -0.063 115 122 126 0 0
9554.7080 -14497.9473 -177.2342 -0.664 0.745 -0.069 112 120 126 0 0
9557.0439 -14495.7490 -175.5505 -0.678 0.734 0.015 93 102 107 0 0
9559.2314 -14493.7607 -173.9818 -0.678 0.734 0.015 71 75 76 0 0
9560.6250 -14492.9326 -173.0351 -0.698 0.686 0.205 68 65 62 0 0
9562.4277 -14491.5010 -171.7673 -0.678 0.658 0.328 85 79 75 0 0
9563.3545 -14491.3506 -171.1853 -0.676 0.555 0.485 106 94 85 0 0
9564.7842 -14490.4619 -170.2093 -0.676 0.555 0.485 112 98 83 0 0
9565.9805 -14489.9121 -169.4160 -0.667 0.596 0.446 120 102 85 0 0
9564.4111 -14493.4395 -170.7926 -0.310 0.038 0.950 120 101 84 0 0
9564.9297 -14493.8916 -170.5310 -0.490 0.182 0.852 121 102 88 0 0
9565.6973 -14493.9746 -170.0739 -0.616 0.269 0.740 121 101 88 0 0
9566.2617 -14494.3584 -169.7767 -0.492 0.112 0.863 121 102 90 0 0
9567.7100 -14493.4336 -168.7848 -0.500 0.159 0.851 109 100 90 0 0
9568.1670 -14493.9756 -168.5719 -0.174 -0.085 0.981 87 96 92 0 0
9567.9141 -14495.5703 -168.9163 -0.401 0.055 0.915 87 89 86 0 0
9569.0781 -14495.0635 -168.1474 -0.584 0.291 0.758 84 79 79 0 0
9569.1709 -14496.1484 -168.2209 -0.696 0.715 0.057 147 148 147 0 0
9569.7354 -14496.5312 -167.9232 -0.491 0.662 0.566 154 156 159 0 0
9570.6855 -14496.3398 -167.3220 -0.491 0.662 0.566 151 153 154 0 0
9573.6406 -14494.3770 -165.2901 -0.319 0.193 0.928 68 72 81 0 0
9572.9473 -14496.6377 -165.9819 0.409 0.803 0.433 114 102 93 0 0
9573.4258 -14497.1484 -165.7518 0.133 0.941 0.312 119 109 94 0 0
9573.1514 -14498.7891 -166.1152 -0.405 0.898 -0.169 105 96 89 0 0
9574.4863 -14498.0166 -165.2110 -0.405 0.898 -0.169 148 148 145 0 0
9575.8359 -14497.2178 -164.2938 -0.446 0.886 -0.131 143 147 149 0 0
9577.2021 -14496.3926 -163.3643 -0.446 0.886 -0.131 143 147 150 0 0
9573.5820 -14503.0752 -166.3656 -0.143 0.142 0.979 145 148 151 0 0
9572.3076 -14513.7168 -168.4135 0.476 0.450 -0.755 90 93 100 0 0
9572.2305 -14515.0889 -168.6247 0.459 0.405 -0.791 88 92 97 0 0
9573.1328 -14514.9707 -168.0617 0.485 0.394 -0.781 89 94 99 0 0
9574.1895 -14514.6172 -167.3762 0.443 0.445 -0.778 87 93 100 0 0
9575.2188 -14514.3037 -166.7128 0.420 0.475 -0.773 85 91 95 0 0
9576.9082 -14512.9795 -165.5266 0.167 0.650 -0.741 91 90 96 0 0
9582.6172 -14508.0049 -161.4586 -0.508 0.841 0.188 109 113 115 0 0
9584.0244 -14507.0977 -160.4943 -0.388 0.474 0.790 114 118 121 0 0
9585.2324 -14506.4941 -159.6874 -0.329 0.352 0.877 113 117 119 0 0
9585.9307 -14506.6699 -159.2833 -0.337 0.353 0.873 113 118 121 0 0
9586.6426 -14506.8271 -158.8694 -0.349 0.413 0.841 80 82 91 0 0
9587.5195 -14506.7275 -158.3235 -0.481 0.577 0.661 83 83 90 0 0
9588.1494 -14507.0088 -157.9741 -0.575 0.610 0.546 79 81 86 0 0
9588.9512 -14507.0244 -157.4886 -0.368 0.447 0.815 78 81 86 0 0
9589.6553 -14507.1895 -157.0799 -0.368 0.447 0.815 90 88 91 0 0
9590.5371 -14507.0801 -156.5304 -0.532 0.583 0.614 121 116 118 0 0
9591.4961 -14506.8486 -155.9194 -0.532 0.583 0.614 149 153 154 0 0
9592.7549 -14506.1514 -155.0703 -0.639 0.588 0.496 123 133 142 0 0
9593.7344 -14505.8857 -154.4425 -0.647 0.679 0.346 98 102 107 0 0
9593.7510 -14507.1162 -154.5796 -0.405 0.818 0.408 62 66 71 0 0
9601.4307 -14501.4111 -149.2253 -0.619 0.744 -0.252 81 83 83 0 0
9604.0166 -14498.6162 -147.3183 -0.604 0.741 -0.294 89 91 92 0 0
9606.7793 -14495.5352 -145.2688 -0.450 0.273 0.850 61 62 66 0 0
9607.8750 -14495.0645 -144.5461 -0.593 0.339 0.731 69 67 60 0 0
9606.9453 -14501.5371 -145.8860 -0.154 0.983 -0.096 93 89 77 0 0
9607.6680 -14501.6543 -145.4604 -0.281 0.935 -0.215 95 94 88 0 0
9609.0010 -14500.8066 -144.5479 -0.380 0.908 -0.177 99 97 88 0 0
9610.3145 -14499.9863 -143.6507 -0.455 0.845 -0.281 77 76 74 0 0
9612.2988 -14498.0996 -142.2177 -0.505 0.793 -0.342 66 70 75 0 0
9612.7686 -14498.6123 -141.9937 -0.237 0.910 -0.340 64 69 78 0 0
9615.4023 -14495.6885 -140.0418 -0.555 0.796 -0.241 67 72 81 0 0
9617.6758 -14493.3291 -138.3765 -0.673 0.485 0.558 70 75 84 0 0
9618.9463 -14492.5596 -137.5117 -0.673 0.485 0.558 73 79 85 0 0
9620.3291 -14491.6084 -136.5567 -0.614 0.310 0.726 78 80 88 0 0
9621.4062 -14491.1426 -135.8456 -0.614 0.310 0.726 78 80 87 0 0
9621.6309 -14492.0352 -135.8155 -0.503 0.280 0.818 74 78 85 0 0
9623.4307 -14491.6631 -134.6761 -0.420 0.074 0.904 71 75 83 0 0
9623.9736 -14492.0479 -134.3922 -0.420 0.074 0.904 75 80 86 0 0
9624.4229 -14492.5820 -134.1828 -0.358 0.024 0.933 74 81 87 0 0
9624.3408 -14493.9707 -134.3987 -0.314 -0.022 0.949 73 80 85 0 0
9624.6484 -14494.7344 -134.3026 -0.345 -0.008 0.938 76 80 86 0 0
9625.1904 -14495.1230 -134.0197 -0.296 -0.036 0.954 78 80 87 0 0
9626.1250 -14494.8779 -133.4220 -0.444 0.131 0.887 84 86 94 0 0
9626.4990 -14495.5352 -133.2730 -0.626 0.377 0.683 85 87 92 0 0
9627.3760 -14495.3818 -132.7211 -0.610 0.400 0.684 77 85 89 0 0
9628.2930 -14495.1611 -132.1366 -0.593 0.410 0.692 80 85 90 0 0
9629.3662 -14494.6875 -131.4273 -0.541 0.344 0.767 81 87 92 0 0
9630.2832 -14494.4639 -130.8427 -0.392 0.205 0.897 92 95 100 0 0
9631.1182 -14496.9043 -130.6268 -0.357 0.910 -0.209 85 84 69 0 0
9612.6406 -14534.8262 -146.4023 -0.772 0.629 0.092 36 39 41 0 0
9615.6387 -14531.2246 -144.1479 -0.774 0.625 0.105 39 41 42 0 0
9617.1396 -14530.0723 -143.0968 -0.666 0.741 -0.085 49 51 52 0 0
9618.9570 -14528.3965 -141.7906 -0.562 0.746 -0.357 57 58 59 0 0
9621.4297 -14525.6377 -139.9568 -0.665 0.723 -0.186 62 61 62 0 0
9623.2461 -14523.9512 -138.6497 -0.694 0.719 -0.020 57 57 59 0 0
9625.8730 -14520.9248 -136.6902 -0.715 0.643 0.275 57 57 59 0 0
9633.5234 -14512.1748 -130.9893 -0.749 0.636 0.185 69 68 70 0 0
9636.4746 -14508.5791 -128.7643 -0.749 0.661 0.030 77 75 77 0 0
9640.4531 -14503.2676 -125.7090 -0.749 0.659 0.071 78 77 78 0 0
9642.3730 -14501.3633 -124.3134 -0.700 0.714 0.016 75 75 78 0 0
9643.4893 -14500.7900 -123.5653 -0.574 0.795 0.194 82 82 87 0 0
9644.5576 -14500.2959 -122.8564 0.039 0.748 0.662 89 89 93 0 0
9645.6650 -14499.7344 -122.1156 0.346 0.714 0.609 89 91 94 0 0
9646.3457 -14499.8838 -121.7194 0.772 0.321 0.549 84 86 90 0 0
9636.0078 -14525.0156 -131.0136 -0.420 0.668 -0.615 76 79 85 0 0
9638.8330 -14521.5801 -128.8845 -0.372 0.669 -0.643 71 76 82 0 0
9647.4580 -14512.2686 -122.5241 0.283 0.498 -0.820 73 76 82 0 0
9649.8301 -14509.5586 -120.7568 0.122 0.683 -0.721 71 75 81 0 0
9653.7412 -14504.2324 -117.7406 -0.516 0.793 0.323 82 82 83 0 0
9653.1738 -14506.4941 -118.3560 -0.258 0.812 -0.524 96 94 81 0 0
9654.1846 -14506.0791 -117.6914 -0.283 0.827 -0.485 88 86 71 0 0
9655.5801 -14505.0078 -116.7144 -0.219 0.895 -0.388 91 87 65 0 0
9656.7188 -14504.3711 -115.9459 -0.104 0.896 -0.431 96 92 73 0 0
9658.5820 -14502.4951 -114.5880 -0.009 0.310 0.951 86 85 67 0 0
9659.9844 -14501.4004 -113.6037 -0.051 0.011 0.999 80 81 61 0 0
9660.7354 -14501.4160 -113.1487 -0.249 0.093 0.964 78 79 63 0 0
9662.3350 -14502.5820 -112.3154 -0.360 0.176 0.916 78 79 64 0 0
9663.5039 -14501.8779 -111.5202 -0.436 0.206 0.876 76 78 64 0 0
9663.8555 -14502.5771 -111.3896 -0.474 0.201 0.857 69 72 57 0 0
9664.8164 -14502.2275 -110.7633 -0.364 0.125 0.923 64 68 52 0 0
9665.6201 -14502.1475 -110.2647 -0.407 0.273 0.872 66 68 53 0 0
9666.2568 -14502.3555 -109.9024 -0.407 0.273 0.872 59 62 53 0 0
9667.2188 -14502.0000 -109.2745 0.200 -0.108 0.974 68 70 71 0 0
9669.0713 -14504.0264 -108.3899 0.014 0.735 0.678 105 105 106 0 0
9668.5488 -14506.2480 -108.9735 -0.657 0.380 0.651 104 105 103 0 0
9670.0732 -14506.2266 -108.0437 -0.266 0.100 0.959 106 107 108 0 0
9670.2793 -14507.1846 -108.0329 -0.278 0.099 0.955 48 62 70 0 0
9670.7607 -14507.6621 -107.7970 -0.208 0.143 0.968 41 51 58 0 0
9672.4150 -14506.0889 -106.6026 -0.269 0.801 0.535 91 93 93 0 0
9672.7793 -14506.7715 -106.4628 -0.480 0.819 0.314 94 92 90 0 0
9673.4932 -14506.8408 -106.0367 0.163 0.978 0.129 92 92 87 0 0
9674.7266 -14511.2979 -105.8196 0.292 0.067 0.954 75 76 82 0 0
9675.7578 -14512.1377 -105.2927 -0.604 0.355 0.713 89 93 96 0 0
9676.8115 -14511.6045 -104.5878 -0.615 0.444 0.651 93 96 101 0 0
9677.5742 -14511.5850 -104.1214 -0.587 0.521 0.620 87 91 95 0 0
9678.5127 -14511.2539 -103.5109 -0.587 0.521 0.620 84 87 92 0 0
9679.3848 -14511.0391 -102.9548 -0.558 0.448 0.698 84 87 93 0 0
9680.5049 -14510.3809 -102.1947 -0.559 0.549 0.622 84 87 90 0 0
9682.6543 -14507.8867 -100.5890 -0.650 0.757 0.063 70 70 72 0 0
9683.5674 -14507.5898 -99.9975 -0.634 0.766 -0.109 63 66 66 0 0
9694.3496 -14493.6123 -91.7669 -0.465 0.670 -0.578 57 53 54 0 0
9676.5010 -14531.0439 -107.1017 -0.734 0.639 -0.231 60 60 57 0 0
9679.5303 -14526.9492 -104.7689 -0.765 0.619 -0.179 53 54 51 0 0
9683.3115 -14521.4863 -101.8155 -0.754 0.631 -0.183 70 69 62 0 0
9685.0791 -14519.6484 -100.5204 -0.718 0.662 -0.214 69 67 60 0 0
9691.7803 -14511.5645 -95.4769 -0.637 0.394 0.663 57 56 56 0 0
9693.6230 -14509.5654 -94.1168 -0.635 0.772 0.006 72 71 69 0 0
9695.8242 -14506.9082 -92.4601 -0.540 0.765 -0.351 89 86 84 0 0
9696.9121 -14506.2715 -91.7221 -0.541 0.815 -0.206 82 79 73 0 0
9697.8291 -14505.9434 -91.1251 -0.305 0.871 -0.384 87 89 88 0 0
9681.5332 -14541.1875 -105.2530 0.226 -0.175 0.958 80 82 82 0 0
9702.2559 -14512.6797 -89.2376 0.143 0.688 0.712 52 52 52 0 0
9702.7900 -14513.0527 -88.9573 0.071 0.546 0.835 47 50 50 0 0
9703.4883 -14513.1211 -88.5408 -0.270 0.465 0.843 50 53 51 0 0
9703.6055 -14514.2656 -88.6062 -0.551 0.562 0.617 52 56 54 0 0
9707.0537 -14514.6797 -86.5580 -0.060 0.519 0.853 65 68 57 0 0
9707.1748 -14515.8232 -86.6212 0.590 0.034 0.807 76 76 63 0 0
9707.9609 -14515.7246 -86.1312 0.070 0.430 0.900 74 75 66 0 0
9705.5039 -14521.6992 -88.3406 -0.809 0.472 0.349 69 71 60 0 0
9707.0381 -14520.2021 -87.2282 -0.818 0.518 0.252 66 69 57 0 0
9708.9688 -14517.9561 -85.7851 -0.814 0.492 0.308 68 68 56 0 0
9712.1572 -14514.7119 -83.4576 -0.631 0.439 0.639 134 131 127 0 0
9713.0654 -14514.3740 -82.8644 -0.694 0.641 0.328 146 139 130 0 0
9714.2217 -14513.5674 -82.0646 -0.727 0.594 0.345 148 144 136 0 0
9714.0264 -14515.3105 -82.3917 -0.441 0.127 0.888 144 140 132 0 0
9718.8525 -14517.1963 -79.6815 -0.300 0.514 0.804 128 138 146 0 0
9719.3828 -14517.5693 -79.4033 -0.432 0.542 0.721 153 144 140 0 0
9720.0381 -14517.7051 -79.0210 -0.408 0.501 0.764 161 153 142 0 0
9720.7285 -14517.7715 -78.6088 -0.408 0.501 0.764 156 147 136 0 0
9722.5684 -14518.4121 -77.5664 0.682 0.247 0.688 72 69 66 0 0
9723.3408 -14519.7119 -77.2517 0.069 0.508 0.859 151 111 61 0 0
9724.3623 -14519.1377 -76.5619 -0.347 0.932 0.106 120 94 57 0 0
9725.2178 -14518.8809 -76.0108 -0.347 0.932 0.106 93 75 52 0 0
9728.4238 -14519.6592 -74.1536 -0.323 0.400 0.858 157 147 139 0 0
9729.0225 -14519.8965 -73.8179 -0.323 0.400 0.858 152 146 137 0 0
9729.9688 -14519.4541 -73.1889 0.747 0.258 0.612 142 138 130 0 0
9730.6406 -14523.7705 -73.2966 0.636 0.629 0.448 129 114 99 0 0
9731.0693 -14524.3418 -73.1040 0.636 0.629 0.448 132 117 96 0 0
9731.4746 -14524.9609 -72.9317 0.315 0.919 0.235 128 114 95 0 0
9731.8545 -14525.6299 -72.7804 0.416 0.903 0.109 122 107 90 0 0
9733.1973 -14524.4023 -71.8168 0.200 0.823 0.532 122 107 91 0 0
9733.7666 -14524.6973 -71.5056 0.471 0.498 0.728 121 112 101 0 0
9733.2969 -14528.4658 -72.2420 -0.198 0.610 -0.767 133 116 99 0 0
9740.2285 -14526.0977 -67.7425 -0.604 0.199 0.772 123 111 94 0 0
9741.1582 -14525.6670 -67.1254 -0.604 0.199 0.772 115 103 88 0 0
9742.0371 -14525.3359 -66.5509 -0.652 0.268 0.710 112 99 86 0 0
9743.1006 -14524.6338 -65.8201 -0.610 0.236 0.756 115 107 102 0 0
9743.6152 -14525.0303 -65.5543 -0.689 0.379 0.618 113 109 108 0 0
9744.5439 -14524.5957 -64.9376 -0.597 0.348 0.723 112 110 112 0 0
9745.3525 -14524.3984 -64.4218 -0.336 0.248 0.909 118 117 119 0 0
9736.1270 -14554.7021 -73.6578 0.341 0.073 0.937 119 117 119 0 0
9736.3965 -14555.6328 -73.6056 -0.119 0.277 0.953 158 162 160 0 0
9737.0654 -14555.7500 -73.2126 0.363 0.072 0.929 110 116 122 0 0
9736.6172 -14558.1484 -73.7724 0.867 -0.058 0.495 98 106 108 0 0
9736.5840 -14559.7031 -73.9785 0.832 -0.022 0.555 106 111 113 0 0
9737.0312 -14563.2617 -74.1316 0.680 0.491 0.545 102 110 111 0 0
9729.7217 -14587.4102 -81.4665 0.545 -0.007 0.839 116 125 130 0 0
9730.1875 -14587.9785 -81.2508 0.005 0.872 -0.490 154 156 157 0 0
9744.8271 -14575.8096 -70.8898 -0.375 0.377 0.847 104 104 106 0 0
9745.4717 -14575.9854 -70.5190 0.544 0.005 0.839 123 123 124 0 0
9745.6123 -14577.2217 -70.5810 0.547 -0.008 0.837 97 100 103 0 0
9745.7373 -14578.4932 -70.6570 0.414 0.563 0.715 87 93 96 0 0
9747.1953 -14578.4873 -69.7694 -0.073 0.586 0.807 81 90 91 0 0
9543.6787 -14507.4268 -184.1866 -0.003 0.932 -0.362 69 69 73 0 0
9545.0918 -14506.5967 -183.2284 -0.263 0.932 -0.248 105 105 109 0 0
9547.6162 -14504.1484 -181.4024 -0.615 0.782 -0.102 119 127 130 0 0
9549.7314 -14502.2891 -179.8952 -0.615 0.782 -0.102 108 118 124 0 0
9551.8984 -14500.3486 -178.3469 -0.653 0.757 -0.035 107 116 120 0 0
9553.8984 -14498.6475 -176.9282 -0.658 0.750 -0.064 102 110 113 0 0
9556.3115 -14496.3369 -175.1860 -0.680 0.556 0.478 86 94 95 0 0
9557.8096 -14495.3613 -174.1596 -0.672 0.574 0.467 66 66 60 0 0
9559.2031 -14494.5342 -173.2138 -0.703 0.569 0.426 89 82 64 0 0
9559.7949 -14494.8828 -172.8956 -0.592 0.308 0.745 104 94 84 0 0
9560.8838 -14494.4980 -172.1875 -0.592 0.308 0.745 114 101 89 0 0
9562.6436 -14493.1279 -170.9546 -0.606 0.368 0.705 116 102 86 0 0
9563.7344 -14492.7373 -170.2450 -0.687 0.486 0.541 116 100 84 0 0
9562.5684 -14495.6719 -171.3034 -0.310 0.038 0.950 121 105 88 0 0
9563.4375 -14495.6084 -170.7673 -0.360 0.075 0.930 120 103 88 0 0
9561.0215 -14500.3965 -172.8062 -0.765 0.612 0.200 119 102 88 0 0
9563.8672 -14497.4141 -170.7211 -0.728 0.565 0.387 119 103 89 0 0
9565.7119 -14495.9053 -169.4199 -0.681 0.449 0.579 88 95 86 0 0
9566.0010 -14497.9209 -169.4840 -0.573 0.462 0.677 96 96 84 0 0
9567.1064 -14497.5049 -168.7627 -0.650 0.594 0.474 81 83 82 0 0
9568.1934 -14497.1123 -168.0549 -0.696 0.715 0.057 110 116 121 0 0
9568.7490 -14497.5107 -167.7646 -0.464 0.567 0.681 114 125 132 0 0
9569.7500 -14497.2441 -167.1244 -0.475 0.611 0.633 115 124 129 0 0
9570.4844 -14497.3750 -166.6935 -0.449 0.489 0.748 104 114 123 0 0
9572.0928 -14496.1992 -165.5757 -0.430 0.234 0.872 70 77 87 0 0
9572.2188 -14497.2363 -165.6226 -0.186 0.489 0.852 83 80 72 0 0
9572.7998 -14497.5938 -165.3117 -0.083 0.921 0.380 86 81 68 0 0
9572.7979 -14498.8252 -165.4592 -0.405 0.898 -0.169 82 78 72 0 0
9574.2031 -14497.9482 -164.5009 -0.332 0.920 -0.209 125 128 126 0 0
9575.3926 -14497.3896 -163.7111 -0.355 0.918 -0.177 135 138 141 0 0
9575.7949 -14499.2461 -163.6873 0.709 0.705 0.007 138 141 143 0 0
9573.1230 -14506.9893 -166.2339 0.962 -0.151 0.228 102 110 120 0 0
9572.9658 -14512.2119 -166.9510 0.474 0.504 -0.722 69 77 86 0 0
9573.7080 -14512.3359 -166.5146 0.419 0.469 -0.778 65 67 72 0 0
9574.2793 -14512.7188 -166.2124 0.485 0.394 -0.781 91 95 98 0 0
9575.2812 -14512.4463 -165.5709 0.469 0.431 -0.771 61 64 66 0 0
9576.4170 -14511.9688 -164.8240 0.388 0.497 -0.776 65 64 67 0 0
9577.7559 -14511.1787 -163.9158 0.056 0.652 -0.756 105 109 112 0 0
9579.9814 -14509.0312 -162.3073 -0.324 0.758 -0.565 68 72 82 0 0
9581.5576 -14507.8701 -161.2108 -0.460 0.884 -0.084 51 55 65 0 0
9582.4736 -14507.7168 -160.6354 -0.430 0.890 -0.154 73 73 78 0 0
9583.3711 -14507.5918 -160.0750 -0.218 0.639 0.738 85 85 93 0 0
9584.2920 -14507.4297 -159.4961 -0.329 0.687 0.647 83 86 89 0 0
9587.3887 -14507.6719 -157.6418 -0.561 0.712 0.423 80 83 91 0 0
9589.0078 -14506.4268 -156.5095 0.305 0.305 0.902 96 102 106 0 0
9589.1338 -14507.4844 -156.5588 0.122 0.486 0.865 89 93 98 0 0
9590.0703 -14507.2900 -155.9659 -0.132 0.610 0.781 87 88 94 0 0
9590.4531 -14507.9531 -155.8125 -0.275 0.605 0.747 119 119 122 0 0
9591.4424 -14507.6748 -155.1781 -0.612 0.667 0.424 117 121 124 0 0
9592.7510 -14506.8994 -154.2900 -0.647 0.679 0.346 95 102 103 0 0
9593.0889 -14507.6309 -154.1719 -0.395 0.893 0.217 58 65 70 0 0
9601.4561 -14500.8584 -148.2789 -0.633 0.740 -0.229 75 77 77 0 0
9603.6318 -14498.7051 -146.6994 -0.611 0.740 -0.283 88 89 92 0 0
9605.1348 -14497.6006 -145.6541 -0.490 0.220 0.843 69 71 71 0 0
9606.2939 -14497.0322 -144.8819 -0.611 0.388 0.690 74 70 65 0 0
9607.5713 -14498.7783 -144.3132 0.349 -0.001 0.937 82 79 68 0 0
9607.3662 -14501.6113 -144.7748 -0.391 0.920 0.026 93 91 86 0 0
9608.5029 -14501.0752 -144.0204 -0.522 0.851 -0.055 93 92 87 0 0
9609.7812 -14500.3105 -143.1517 -0.538 0.838 -0.090 71 73 73 0 0
9611.2812 -14499.1943 -142.1072 -0.599 0.801 -0.002 65 71 77 0 0
9612.2598 -14498.8994 -141.4770 -0.457 0.889 0.040 65 70 79 0 0
9613.6289 -14497.9844 -140.5359 -0.621 0.783 0.029 63 68 76 0 0
9616.2949 -14495.0049 -138.5603 -0.666 0.402 0.628 66 72 81 0 0
9617.2764 -14494.6982 -137.9274 -0.627 0.355 0.693 72 78 84 0 0
9618.5732 -14493.8867 -137.0422 -0.578 0.261 0.773 70 75 81 0 0
9619.4883 -14493.6816 -136.4612 -0.619 0.261 0.740 70 75 83 0 0
9620.6162 -14493.1357 -135.7105 -0.619 0.261 0.740 71 75 81 0 0
9621.6123 -14492.7988 -135.0654 -0.428 0.121 0.896 70 75 80 0 0
9622.2324 -14493.0605 -134.7191 -0.434 0.101 0.895 67 73 80 0 0
9624.3994 -14497.1338 -133.8868 -0.344 0.165 0.924 75 81 89 0 0
9625.1182 -14497.2383 -133.4624 -0.614 0.461 0.640 73 81 89 0 0
9625.8203 -14497.3672 -133.0503 -0.621 0.512 0.594 74 81 88 0 0
9626.9023 -14496.8838 -132.3356 -0.621 0.512 0.594 74 80 86 0 0
9627.8506 -14496.6133 -131.7265 -0.570 0.442 0.693 83 92 100 0 0
9630.8135 -14496.8691 -129.9557 -0.357 0.910 -0.209 86 85 71 0 0
9611.3330 -14536.4150 -146.5065 -0.772 0.629 0.092 35 41 48 0 0
9613.9434 -14533.4531 -144.5666 -0.708 0.701 -0.088 32 36 39 0 0
9616.1338 -14531.1719 -142.9634 -0.670 0.726 -0.155 43 44 45 0 0
9618.8691 -14527.9902 -140.9218 -0.654 0.714 -0.249 55 55 55 0 0
9620.3652 -14526.8389 -139.8752 -0.719 0.695 -0.004 54 53 56 0 0
9622.0547 -14525.3652 -138.6727 -0.664 0.747 -0.044 51 51 53 0 0
9624.0156 -14523.4395 -137.2514 -0.606 0.793 0.068 52 52 53 0 0
9625.4521 -14522.3730 -136.2508 -0.328 0.851 0.410 60 61 63 0 0
9632.7939 -14514.1338 -130.8071 -0.726 0.679 -0.106 67 65 70 0 0
9635.5244 -14510.9014 -128.7618 -0.741 0.665 -0.087 67 66 70 0 0
9639.1211 -14506.2217 -126.0181 -0.741 0.670 -0.036 65 67 71 0 0
9641.6279 -14503.3438 -124.1518 -0.705 0.701 0.112 79 78 82 0 0
9628.4844 -14533.1162 -135.6866 -0.304 0.880 -0.366 87 88 93 0 0
9629.9385 -14532.0039 -134.6702 -0.290 0.850 -0.440 107 110 111 0 0
9636.8096 -14523.1094 -129.4339 -0.476 0.682 -0.555 78 82 89 0 0
9640.5205 -14518.1816 -126.5910 -0.454 0.681 -0.575 74 79 85 0 0
9645.4287 -14513.8350 -123.0898 0.006 0.633 -0.775 56 58 66 0 0
9647.8291 -14511.0850 -121.3033 0.333 0.494 -0.804 68 72 79 0 0
9649.6943 -14509.2324 -119.9486 0.318 0.649 -0.692 70 75 82 0 0
9651.2705 -14507.8662 -118.8276 -0.018 0.874 -0.485 72 76 86 0 0
9652.6855 -14506.7686 -117.8370 -0.373 0.840 -0.395 68 74 80 0 0
9654.0156 -14505.8115 -116.9142 -0.525 0.825 -0.208 85 86 83 0 0
9655.3760 -14504.7988 -115.9665 -0.617 0.743 0.261 97 93 84 0 0
9656.5771 -14504.0566 -115.1481 -0.549 0.654 0.520 90 86 71 0 0
9657.8154 -14503.2461 -114.2984 -0.338 0.352 0.873 94 91 72 0 0
9658.8301 -14502.8154 -113.6304 -0.096 0.086 0.992 99 94 75 0 0
9658.9287 -14503.9482 -113.7054 -0.103 0.207 0.973 85 84 70 0 0
9659.7148 -14503.9062 -113.2223 -0.172 0.087 0.981 75 78 65 0 0
9663.0605 -14504.6895 -111.2817 -0.534 0.322 0.782 71 75 63 0 0
9664.4170 -14503.6611 -110.3350 -0.441 0.334 0.833 63 68 56 0 0
9665.0713 -14503.8398 -109.9584 -0.427 0.300 0.853 56 62 54 0 0
9666.1211 -14503.3350 -109.2598 0.060 -0.009 0.998 49 55 54 0 0
9666.4795 -14507.9609 -109.5927 -0.335 0.073 0.939 68 69 70 0 0
9666.4980 -14509.2461 -109.7346 -0.606 0.238 0.759 67 62 64 0 0
9667.1670 -14509.4014 -109.3465 -0.664 0.289 0.690 61 58 62 0 0
9668.1621 -14508.9883 -108.6920 -0.522 0.411 0.747 53 53 57 0 0
9669.0205 -14508.8105 -108.1489 -0.328 0.205 0.922 45 49 55 0 0
9669.6025 -14509.1152 -107.8312 -0.208 0.143 0.968 43 46 51 0 0
9671.5605 -14507.0137 -106.3909 -0.479 0.815 0.326 49 50 51 0 0
9672.2598 -14507.1104 -105.9773 -0.456 0.878 0.148 53 48 49 0 0
9673.1875 -14506.8047 -105.3770 -0.057 0.986 0.160 50 48 47 0 0
9674.1367 -14506.4609 -104.7591 0.755 0.577 0.313 33 38 44 0 0
9673.7832 -14512.3838 -105.6790 0.505 0.115 0.855 129 133 135 0 0
9673.6514 -14513.9482 -105.9453 -0.348 0.436 0.830 125 130 127 0 0
9674.5771 -14513.6445 -105.3459 -0.523 0.442 0.729 132 135 136 0 0
9675.3750 -14513.5684 -104.8522 -0.637 0.715 0.288 128 133 138 0 0
9676.5625 -14512.7979 -104.0381 -0.589 0.800 0.117 122 129 131 0 0
9677.8184 -14511.9062 -103.1688 -0.549 0.834 -0.047 121 124 121 0 0
9679.0469 -14511.0586 -102.3210 -0.527 0.841 0.122 113 114 115 0 0
9680.1465 -14510.4365 -101.5781 -0.552 0.812 0.187 92 93 93 0 0
9694.8389 -14492.1611 -90.4706 -0.463 0.671 -0.580 59 58 60 0 0
9698.1104 -14487.6104 -87.9403 -0.400 0.673 -0.622 61 60 56 0 0
9701.3506 -14483.1035 -85.4336 -0.429 0.684 -0.589 65 62 55 0 0
9703.5898 -14480.3848 -83.7488 -0.421 0.674 -0.607 63 61 54 0 0
9674.4365 -14534.1621 -107.8742 -0.771 0.615 -0.164 61 60 56 0 0
9678.4531 -14528.2939 -104.7339 -0.771 0.615 -0.164 56 55 52 0 0
9682.3838 -14522.5645 -101.6617 -0.769 0.619 -0.157 66 66 56 0 0
9686.5605 -14517.7285 -98.5469 -0.742 0.654 -0.147 61 61 55 0 0
9690.8184 -14512.7178 -95.3619 -0.659 0.752 -0.001 62 61 60 0 0
9693.0430 -14510.0264 -93.6888 -0.432 0.823 -0.370 64 61 61 0 0
9674.6133 -14546.2617 -109.2071 -0.579 0.677 0.455 111 110 113 0 0
9675.6455 -14545.7715 -108.5208 -0.696 0.710 0.109 108 110 112 0 0
9680.8545 -14541.8184 -104.8835 0.477 0.044 0.878 77 80 81 0 0
9705.4814 -14515.6348 -86.7945 -0.294 0.596 0.748 77 78 61 0 0
9706.5420 -14515.0264 -86.0775 -0.465 0.707 0.532 76 75 61 0 0
9706.6240 -14516.2432 -86.1724 0.541 0.043 0.840 81 79 63 0 0
9707.3252 -14516.3037 -85.7535 0.045 0.343 0.938 76 76 62 0 0
9703.8311 -14524.2178 -88.8197 -0.819 0.492 0.295 72 73 60 0 0
9705.5273 -14522.4199 -87.5743 -0.818 0.518 0.252 69 71 59 0 0
9710.8887 -14516.4854 -83.6085 -0.675 0.402 0.619 101 103 101 0 0
9712.4033 -14515.0088 -82.5121 -0.686 0.635 0.355 143 133 124 0 0
9713.1738 -14514.9307 -82.0344 -0.735 0.602 0.313 153 147 138 0 0
9713.1641 -14516.3252 -82.2063 -0.448 0.187 0.874 145 138 131 0 0
9713.0332 -14517.9502 -82.4790 -0.074 -0.027 0.997 107 94 94 0 0
9717.9902 -14518.2188 -79.4972 -0.318 0.292 0.902 96 92 102 0 0
9718.4775 -14518.6768 -79.2555 -0.335 0.341 0.878 142 131 127 0 0
9719.0586 -14518.9551 -78.9358 -0.375 0.421 0.826 165 156 144 0 0
9719.7021 -14519.1123 -78.5630 -0.375 0.421 0.826 166 156 142 0 0
9720.1357 -14519.6729 -78.3660 -0.221 0.252 0.942 159 151 140 0 0
9720.1191 -14521.0967 -78.5457 -0.524 0.320 0.789 149 141 134 0 0
9721.1484 -14520.5137 -77.8504 -0.556 0.301 0.775 113 111 106 0 0
9721.7988 -14520.6592 -77.4727 -0.343 0.188 0.920 56 58 61 0 0
9722.3916 -14520.9121 -77.1420 -0.209 0.164 0.964 46 48 52 0 0
9724.4180 -14518.4014 -75.6115 -0.642 0.657 0.395 48 48 50 0 0
9726.1592 -14519.2236 -74.6509 -0.132 0.190 0.973 48 49 54 0 0
9728.7500 -14521.1943 -73.3101 -0.252 0.266 0.931 167 161 148 0 0
9729.3008 -14521.5254 -73.0145 0.148 0.158 0.976 160 154 144 0 0
9729.4863 -14522.5703 -73.0265 0.357 0.160 0.920 138 134 131 0 0
9729.7598 -14523.4434 -72.9637 0.812 0.272 0.517 92 90 91 0 0
9730.1816 -14524.0293 -72.7773 0.356 0.647 0.674 100 90 81 0 0
9730.6504 -14524.5225 -72.5511 0.356 0.647 0.674 126 110 93 0 0
9731.0654 -14525.1221 -72.3702 0.246 0.774 0.583 128 113 97 0 0
9731.3994 -14525.8809 -72.2574 0.212 0.840 0.500 119 110 95 0 0
9732.1807 -14525.7607 -71.7679 0.254 0.076 0.964 120 108 93 0 0
9737.4678 -14529.5234 -69.0016 -0.638 0.223 0.737 114 107 101 0 0
9738.0234 -14529.8467 -68.7024 -0.520 0.121 0.846 116 108 101 0 0
9739.3018 -14528.7246 -67.7915 -0.604 0.199 0.772 109 105 98 0 0
9740.4629 -14527.8330 -66.9794 -0.654 0.246 0.715 111 106 103 0 0
9741.3916 -14527.4043 -66.3637 -0.652 0.268 0.710 103 100 99 0 0
9742.0273 -14527.5625 -65.9962 -0.737 0.478 0.478 101 100 102 0 0
9743.3467 -14526.3447 -65.0489 -0.620 0.390 0.681 103 102 103 0 0
9744.1250 -14526.2119 -64.5601 -0.421 0.397 0.815 116 115 114 0 0
9745.9521 -14526.8320 -63.5230 0.306 0.641 0.704 145 140 134 0 0
9735.6035 -14555.0859 -73.1777 0.419 0.133 0.898 118 116 119 0 0
9735.8105 -14556.1436 -73.1779 0.174 0.316 0.932 141 142 141 0 0
9736.2637 -14556.7012 -72.9686 0.395 -0.017 0.919 147 151 152 0 0
9736.3125 -14558.0840 -73.1034 0.449 -0.009 0.893 115 123 123 0 0
9736.3398 -14559.5156 -73.2577 0.502 0.015 0.865 104 109 110 0 0
9736.4258 -14560.8271 -73.3613 0.410 0.142 0.901 102 107 110 0 0
9735.9414 -14564.8066 -74.1298 0.529 -0.229 0.817 102 108 108 0 0
9740.4316 -14575.1455 -72.6304 0.992 0.126 -0.002 114 116 114 0 0
9740.6143 -14576.2881 -72.6552 0.986 0.166 -0.004 97 102 99 0 0
9741.2822 -14577.9473 -72.4469 -0.577 0.331 0.747 96 99 103 0 0
9744.8545 -14576.5693 -70.1112 0.197 0.132 0.972 116 114 118 0 0
9745.1396 -14577.5010 -70.0486 0.598 -0.016 0.801 105 108 111 0 0
9543.5781 -14507.0889 -183.3175 -0.003 0.932 -0.362 68 70 76 0 0
9544.8516 -14506.4619 -182.4691 -0.263 0.932 -0.248 105 105 110 0 0
9547.1709 -14504.3135 -180.8058 -0.603 0.791 0.106 121 132 137 0 0
9548.6445 -14503.3896 -179.8009 -0.618 0.673 0.406 110 118 126 0 0
9550.3613 -14502.1074 -178.6057 -0.699 0.589 0.406 101 110 116 0 0
9552.4297 -14500.3096 -177.1361 -0.718 0.517 0.467 92 102 104 0 0
9554.3027 -14498.7920 -175.8182 -0.497 0.148 0.855 72 70 67 0 0
9555.0859 -14498.8643 -175.3509 -0.497 0.148 0.855 77 73 60 0 0
9555.8691 -14498.9375 -174.8839 -0.497 0.148 0.855 95 87 69 0 0
9556.6387 -14499.0283 -174.4270 -0.413 0.069 0.908 107 94 80 0 0
9557.1807 -14499.4531 -174.1481 -0.413 0.069 0.908 109 95 80 0 0
9557.7227 -14499.8779 -173.8692 -0.413 0.069 0.908 107 94 78 0 0
9560.4707 -14497.0566 -171.8651 -0.694 0.422 0.583 110 97 82 0 0
9560.5986 -14498.0879 -171.9096 -0.211 0.028 0.977 110 98 82 0 0
9560.9414 -14498.8037 -171.7861 -0.381 0.212 0.900 114 101 85 0 0
9559.9707 -14501.4600 -172.6907 -0.685 0.724 0.086 111 99 83 0 0
9562.0146 -14499.6650 -171.2358 -0.692 0.713 0.109 98 98 86 0 0
9564.1367 -14498.9727 -169.8648 -0.218 0.607 0.764 81 85 77 0 0
9565.0283 -14498.8760 -169.3117 -0.435 0.755 0.490 83 81 69 0 0
9566.1377 -14498.4541 -168.5879 -0.493 0.670 0.555 84 87 85 0 0
9567.4717 -14497.6963 -167.6873 -0.609 0.775 -0.165 112 123 127 0 0
9567.9414 -14498.2227 -167.4641 -0.462 0.731 0.503 114 128 136 0 0
9568.7637 -14498.2236 -166.9648 -0.496 0.662 0.562 116 130 135 0 0
9569.7217 -14498.0215 -166.3588 -0.496 0.662 0.562 120 134 139 0 0
9570.6602 -14497.8467 -165.7678 -0.374 0.252 0.892 84 93 106 0 0
9571.8301 -14498.5527 -165.1407 -0.460 0.681 0.569 77 73 66 0 0
9572.4365 -14498.8740 -164.8104 -0.571 0.818 -0.070 67 67 64 0 0
9573.8193 -14498.0293 -163.8699 -0.355 0.918 -0.177 129 133 131 0 0
9574.8359 -14497.7324 -163.2171 -0.156 0.966 -0.207 143 147 149 0 0
9575.4131 -14498.0938 -162.9091 0.157 0.976 -0.154 143 148 152 0 0
9575.5391 -14499.1357 -162.9561 0.652 0.671 -0.354 144 147 152 0 0
9573.3428 -14509.8877 -165.5648 0.834 0.534 -0.141 111 120 127 0 0
9575.3721 -14509.3037 -164.2627 -0.051 0.863 -0.503 59 65 73 0 0
9575.5352 -14510.3037 -164.2817 0.502 0.419 -0.757 85 92 97 0 0
9576.5342 -14510.0332 -163.6429 0.472 0.480 -0.739 38 44 55 0 0
9578.0547 -14508.9658 -162.5926 0.306 0.888 -0.344 43 44 52 0 0
9578.7832 -14509.1035 -162.1662 0.099 0.646 -0.757 104 109 115 0 0
9580.3564 -14507.9512 -161.0737 -0.191 0.722 -0.665 60 69 84 0 0
9580.8887 -14508.3867 -160.8022 -0.131 0.822 -0.555 38 43 54 0 0
9582.0410 -14507.8721 -160.0408 -0.073 0.788 -0.611 66 67 74 0 0
9583.2930 -14507.2041 -159.2010 0.045 0.787 -0.616 63 68 76 0 0
9585.0869 -14505.7021 -157.9333 0.595 0.442 -0.671 59 66 71 0 0
9586.9375 -14504.1084 -156.6198 0.949 0.276 -0.150 101 105 107 0 0
9586.8398 -14505.5059 -156.8447 0.858 0.506 -0.093 97 102 108 0 0
9587.0303 -14506.4629 -156.8424 0.332 0.847 -0.416 65 76 83 0 0
9588.7852 -14507.5117 -155.9006 0.231 0.533 0.814 76 83 92 0 0
9589.5898 -14507.5225 -155.4129 -0.144 0.828 0.542 67 72 81 0 0
9589.7441 -14508.5381 -155.4393 0.026 0.612 0.790 130 136 136 0 0
9590.7051 -14508.3047 -154.8279 -0.085 0.794 0.603 109 119 126 0 0
9592.5039 -14508.0264 -153.7024 -0.384 0.911 0.151 61 66 75 0 0
9595.3008 -14506.1885 -151.7852 -0.069 0.988 0.136 54 59 64 0 0
9600.9365 -14501.1572 -147.7647 -0.644 0.740 -0.192 58 61 64 0 0
9603.4229 -14498.5186 -145.9413 -0.604 0.737 -0.303 52 53 54 0 0
9603.6992 -14499.3369 -145.8703 -0.398 0.140 0.907 66 64 58 0 0
9605.0146 -14498.5254 -144.9750 -0.633 0.407 0.658 68 66 59 0 0
9607.9805 -14501.3809 -143.5114 -0.606 0.700 0.378 83 85 84 0 0
9609.1680 -14500.7617 -142.7165 -0.641 0.746 0.181 64 68 73 0 0
9610.4023 -14500.0664 -141.8841 -0.657 0.676 0.334 61 67 75 0 0
9611.1797 -14500.0928 -141.4149 -0.562 0.635 0.530 60 67 76 0 0
9612.2764 -14499.6113 -140.6915 -0.613 0.574 0.544 63 68 76 0 0
9614.7500 -14496.9414 -138.8726 -0.630 0.406 0.662 67 72 81 0 0
9615.2471 -14497.4072 -138.6256 -0.377 0.093 0.922 66 71 80 0 0
9616.3701 -14496.8760 -137.8802 -0.413 0.116 0.903 67 74 83 0 0
9616.4473 -14498.0107 -137.9681 -0.551 0.190 0.813 69 76 85 0 0
9617.4258 -14497.7070 -137.3372 -0.576 0.221 0.787 71 76 84 0 0
9619.1299 -14496.2451 -136.1291 -0.477 0.194 0.857 71 77 83 0 0
9619.6553 -14496.6631 -135.8592 -0.399 0.113 0.910 68 73 79 0 0
9623.2275 -14498.4951 -133.9059 -0.340 0.525 0.780 68 77 84 0 0
9623.9805 -14498.5449 -133.4541 -0.503 0.525 0.686 69 77 85 0 0
9624.4395 -14499.0703 -133.2375 -0.563 0.533 0.632 71 76 85 0 0
9625.2002 -14499.1074 -132.7796 -0.648 0.557 0.520 73 78 86 0 0
9626.6104 -14498.0938 -131.8032 -0.570 0.442 0.693 80 85 89 0 0
9627.4473 -14498.0039 -131.2837 -0.397 0.187 0.899 101 100 94 0 0
9629.9297 -14497.7773 -129.7487 -0.692 0.693 0.203 84 82 71 0 0
9632.6641 -14494.5957 -127.7104 -0.264 0.708 -0.655 68 69 65 0 0
9608.1211 -14539.7988 -147.9778 -0.754 0.644 0.130 93 101 103 0 0
9610.3008 -14537.5527 -146.3876 -0.783 0.610 0.118 75 87 94 0 0
9613.1133 -14534.2617 -144.2887 -0.717 0.694 -0.065 37 44 51 0 0
9615.4941 -14531.6719 -142.5353 -0.670 0.726 -0.155 40 40 45 0 0
9618.3721 -14528.2578 -140.3824 -0.654 0.714 -0.249 45 44 46 0 0
9619.4639 -14527.7705 -139.6610 -0.719 0.695 -0.004 42 41 44 0 0
9621.5557 -14525.6377 -138.1375 -0.697 0.717 0.015 46 46 48 0 0
9623.3330 -14524.0166 -136.8658 -0.630 0.774 0.068 50 49 51 0 0
9625.6719 -14521.4629 -135.1422 -0.691 0.664 0.286 56 54 56 0 0
9626.8223 -14520.8662 -134.3722 -0.692 0.722 -0.010 55 56 59 0 0
9627.7256 -14520.6768 -133.8011 -0.538 0.788 -0.298 56 59 64 0 0
9631.5166 -14515.7021 -130.9082 -0.609 0.712 -0.349 52 59 65 0 0
9634.7920 -14511.5703 -128.4288 -0.677 0.706 -0.210 59 64 69 0 0
9637.6592 -14508.1045 -126.2757 -0.696 0.707 -0.124 64 68 75 0 0
9639.9395 -14505.6074 -124.5947 -0.691 0.714 0.115 75 78 81 0 0
9643.0635 -14502.9844 -122.3860 -0.258 0.623 0.738 90 92 96 0 0
9644.1562 -14502.4492 -121.6586 -0.268 0.306 0.913 92 94 99 0 0
9628.5820 -14532.3896 -134.6684 -0.261 0.854 -0.450 100 101 104 0 0
9629.9961 -14531.3457 -133.6859 -0.352 0.778 -0.520 111 116 119 0 0
9635.3975 -14524.9238 -129.6431 -0.502 0.718 -0.482 93 94 101 0 0
9638.7539 -14520.5967 -127.0909 -0.468 0.701 -0.538 91 91 97 0 0
9648.7256 -14509.0137 -119.6598 0.333 0.494 -0.804 73 79 84 0 0
9650.0156 -14508.1348 -118.7722 0.318 0.649 -0.692 75 78 85 0 0
9651.1494 -14507.5156 -118.0098 -0.031 0.926 -0.375 70 76 84 0 0
9652.1826 -14507.0664 -117.3287 -0.221 0.921 -0.322 71 78 85 0 0
9653.6787 -14505.8281 -116.2730 -0.576 0.722 0.383 70 76 83 0 0
9654.4219 -14505.8682 -115.8265 -0.662 0.685 0.304 76 79 84 0 0
9655.4424 -14505.4326 -115.1546 -0.595 0.600 0.535 97 93 84 0 0
9656.8096 -14504.4053 -114.2023 -0.487 0.357 0.797 102 95 77 0 0
9657.7002 -14504.1865 -113.6350 -0.373 0.237 0.897 103 96 72 0 0
9658.0342 -14504.9189 -113.5188 -0.321 0.287 0.903 98 94 74 0 0
9658.5059 -14505.4170 -113.2915 -0.210 0.244 0.947 96 93 78 0 0
9658.4990 -14506.7334 -113.4516 0.044 0.123 0.991 93 89 71 0 0
9659.0186 -14507.1504 -113.1852 -0.230 0.507 0.831 91 87 69 0 0
9660.3105 -14506.2412 -112.2925 -0.402 0.451 0.797 90 88 71 0 0
9663.1621 -14505.2617 -110.4441 -0.473 0.410 0.780 71 75 63 0 0
9663.6113 -14505.7969 -110.2348 -0.489 0.372 0.789 66 70 58 0 0
9664.1562 -14506.1650 -109.9468 -0.266 0.081 0.961 59 66 55 0 0
9664.8779 -14510.1729 -109.9833 -0.350 0.007 0.937 45 48 49 0 0
9664.5537 -14512.0557 -110.4037 -0.606 0.238 0.759 45 47 48 0 0
9665.1924 -14512.2656 -110.0402 -0.676 0.291 0.677 43 45 47 0 0
9667.0205 -14510.4062 -108.7094 -0.522 0.411 0.747 44 47 47 0 0
9667.6660 -14510.6025 -108.3403 -0.402 0.288 0.869 43 48 48 0 0
9668.3262 -14510.7725 -107.9593 -0.328 0.205 0.922 44 50 49 0 0
9670.9307 -14507.5449 -105.9949 -0.505 0.793 0.340 53 57 54 0 0
9671.3584 -14508.1172 -105.8027 -0.574 0.764 0.296 54 56 54 0 0
9672.7637 -14506.9756 -104.8134 0.081 0.988 0.129 49 52 50 0 0
9674.0186 -14506.0967 -103.9469 0.897 0.417 -0.148 48 52 51 0 0
9673.1719 -14512.8838 -105.2656 0.676 0.157 0.720 105 104 95 0 0
9672.5059 -14515.3896 -105.9667 -0.433 0.315 0.845 95 94 88 0 0
9673.0938 -14515.6855 -105.6447 -0.500 0.340 0.797 95 93 81 0 0
9674.0029 -14515.4141 -105.0601 -0.627 0.398 0.670 87 87 76 0 0
9675.3467 -14514.3721 -104.1203 -0.696 0.630 0.345 87 86 79 0 0
9676.6260 -14513.4404 -103.2330 -0.737 0.618 0.273 81 80 74 0 0
9678.1270 -14512.1104 -102.1630 -0.607 0.741 0.287 75 75 71 0 0
9679.2578 -14511.4375 -101.3966 -0.722 0.669 0.178 75 73 72 0 0
9680.7578 -14510.1016 -100.3266 -0.722 0.669 0.178 72 72 72 0 0
9702.2637 -14482.1973 -83.9539 -0.842 0.440 0.312 85 85 78 0 0
9674.0342 -14534.2861 -107.2774 -0.781 0.611 -0.132 91 90 87 0 0
9677.4873 -14529.4365 -104.6047 -0.753 0.624 -0.209 75 75 73 0 0
9681.5781 -14523.4238 -101.4069 -0.751 0.630 -0.196 81 80 73 0 0
9685.1055 -14518.4131 -98.6700 -0.747 0.634 -0.200 79 77 66 0 0
9692.8438 -14509.7988 -92.9478 -0.432 0.823 -0.370 71 77 83 0 0
9673.9121 -14545.5352 -108.6843 0.895 0.326 0.304 77 81 83 0 0
9674.4639 -14545.9209 -108.3949 -0.019 0.977 0.211 90 90 94 0 0
9674.9658 -14546.3975 -108.1461 -0.666 0.705 0.242 79 84 89 0 0
9677.2461 -14546.4131 -106.7625 0.850 0.140 0.507 80 88 95 0 0
9687.0645 -14535.3564 -99.4871 -0.290 0.603 -0.743 90 97 103 0 0
9703.5273 -14525.5527 -88.3232 -0.798 0.418 0.434 77 79 71 0 0
9705.3994 -14523.4248 -86.9335 -0.798 0.418 0.434 79 82 76 0 0
9709.4648 -14518.5498 -83.8861 -0.722 0.373 0.583 84 86 84 0 0
9711.4697 -14516.1514 -82.3834 -0.705 0.610 0.361 109 104 99 0 0
9712.2822 -14515.9961 -81.8713 -0.775 0.626 0.084 137 131 125 0 0
9711.3467 -14519.1396 -82.8124 -0.544 0.277 0.792 123 115 111 0 0
9711.9102 -14519.4570 -82.5077 -0.237 0.116 0.965 107 93 93 0 0
9712.8486 -14519.0635 -81.8910 -0.100 0.013 0.995 98 87 88 0 0
9715.0410 -14520.4414 -80.7222 0.547 0.837 0.022 78 87 91 0 0
9716.8779 -14519.7188 -79.5204 -0.247 0.259 0.934 78 83 84 0 0
9717.4199 -14520.0732 -79.2334 -0.173 0.156 0.972 126 123 118 0 0
9718.0791 -14520.2031 -78.8480 -0.289 0.253 0.923 166 156 143 0 0
9718.6016 -14520.5938 -78.5768 -0.289 0.253 0.923 172 159 149 0 0
9718.7832 -14521.6396 -78.5905 -0.271 0.231 0.935 171 158 147 0 0
9718.7354 -14523.1250 -78.7955 -0.579 0.380 0.722 164 153 145 0 0
9719.1084 -14525.2041 -78.8152 -0.291 0.012 0.957 92 93 92 0 0
9720.4453 -14524.0322 -77.8641 -0.439 0.105 0.893 68 68 73 0 0
9716.7061 -14534.0557 -81.3238 -0.851 0.477 0.220 83 81 82 0 0
9719.1064 -14530.8291 -79.4826 -0.848 0.492 0.198 92 89 92 0 0
9721.6152 -14527.3857 -77.5504 -0.770 0.339 0.540 111 109 107 0 0
9726.5176 -14523.5010 -74.1119 -0.472 0.246 0.846 174 162 149 0 0
9727.6768 -14522.6494 -73.3067 -0.457 0.207 0.865 173 162 150 0 0
9728.2354 -14522.9668 -73.0045 -0.225 0.174 0.959 170 159 150 0 0
9728.7979 -14523.2773 -72.7000 -0.217 0.253 0.943 171 161 153 0 0
9729.2607 -14523.7812 -72.4784 -0.160 0.335 0.928 155 149 142 0 0
9729.7930 -14524.1494 -72.1984 -0.057 0.531 0.845 114 107 105 0 0
9730.1504 -14524.8623 -72.0660 -0.019 0.549 0.835 105 93 89 0 0
9730.6064 -14525.3809 -71.8501 -0.096 0.663 0.742 109 98 90 0 0
9730.7822 -14526.4502 -71.8699 0.037 0.173 0.984 126 120 112 0 0
