ply
format ascii 1.0
element vertex 706
property float x
property float y
property float z
property uchar diffuse_red
property uchar diffuse_green
property uchar diffuse_blue
end_header
7776.882472863948 -14548.813308257824 -139.61176313938668 57 52 51
8995.453925262156 -14357.840727769046 -133.91009703132272 148 151 157
8054.265115666496 -14842.488596316907 56.613335483882054 114 114 122
7373.8194125558 -13273.709596911802 -503.15187445885545 174 178 181
7532.57289862133 -14557.416138853458 -135.25578049625466 158 159 159
5774.068705503112 -14271.011658515208 -241.47217535768013 153 161 165
7599.246545164479 -14948.310321489575 61.77366009400574 42 46 54
5387.153327123266 -13828.75084190526 -353.5901415596158 171 149 118
7813.364705952479 -13738.333400947125 -351.1824027221768 53 52 57
7900.2124388832035 -13474.655399533616 -455.04713185064526 159 169 177
7822.040497282142 -13732.854179111857 -340.70041707551405 51 58 64
8031.800093328243 -13534.843690416066 -436.533218894574 53 45 46
6508.176813132834 -13253.878580309056 -496.71260828074327 151 147 136
8270.39821728105 -13691.707194709135 -379.60928373493795 153 152 149
8398.13720997388 -13896.661375373618 -336.9498088007587 40 42 47
7323.048283327071 -14583.29713123548 -137.98650785928322 53 50 50
9036.569283603561 -14364.112715185813 -129.94084132315308 25 28 34
7646.54650607284 -13458.75105280288 -464.95337548046274 29 33 41
7795.640748040044 -13245.559598813417 -483.5282581611205 96 97 99
4419.852002301204 -13773.496892920642 -393.46724023797583 153 139 124
9146.400153604287 -14369.368109486344 -105.72527485061768 48 47 52
5817.018705164005 -14302.476929902463 -240.65593494406542 95 94 78
5734.18424559357 -13397.492447691428 -513.9738276308179 40 49 55
6149.994566363465 -13831.180315898508 -371.39301766301764 160 168 171
8169.8692621188375 -14008.008045962899 -284.5678561047427 160 163 170
8882.31671277872 -14325.071229063382 -159.47116277016954 163 166 171
7988.855332602923 -13285.56463808946 -505.1021944141334 130 123 107
2392.8621674230617 -15314.853521505156 12.712079084077235 81 68 62
8031.291855505519 -13461.697613030641 -468.3797645033464 90 94 90
5903.923883532805 -13152.040568190963 -566.6502631939335 170 166 161
7551.359893311096 -13634.68752400242 -407.3465729618203 48 54 58
7280.684798895792 -13564.60519549045 -444.2833774175246 140 136 130
7860.664566427786 -13612.247298026537 -395.0398410449009 49 52 57
7504.1377583213 -13338.593358108641 -485.58633496946373 66 65 69
5290.892739898809 -15171.5282543054 6.030443103738881 66 62 63
8442.422833727365 -13986.535691643094 -281.3321190373331 124 137 143
7979.071229127172 -13952.426884058921 -317.1274448877044 148 123 111
7545.647462740712 -13626.740201923352 -414.996060026857 133 129 123
8420.262222216918 -13991.849085669428 -284.1586875149961 73 80 91
8791.096698484815 -14473.482212072246 -107.40201189402426 92 87 86
9147.907072357286 -14363.237552253417 -124.07744800305971 165 166 166
7955.738662603895 -13522.350198374212 -418.4070381806496 73 83 85
8555.804905120583 -14327.024051061155 -182.77429600152928 87 91 94
8131.687417704631 -13584.915334342086 -432.57049899501845 111 107 106
7852.890131905221 -13383.58035949861 -460.85100182839085 84 85 86
8565.242612221722 -14134.59368803281 -240.2594317279048 39 38 43
8673.721937625212 -14240.139153645543 -219.7079853884852 149 147 144
8888.536356761011 -14324.89684790486 -156.70681681900467 59 50 48
8453.093258786961 -13994.090343395039 -289.4865767977261 23 30 45
8566.204059802973 -14124.831320780555 -251.8118486061025 52 49 53
7482.026358229052 -13838.3081173934 -366.7914839357728 162 162 162
8559.326249065023 -14127.822628177313 -242.2848960304399 46 45 49
7815.342201389355 -13721.526246498952 -359.63349120988545 48 59 67
7776.218502461415 -14662.050003964601 -94.41173940394594 84 78 75
7564.46971473799 -13344.86028646116 -484.7856745756094 227 176 102
6491.038778537362 -14160.389942384487 -243.34723154697568 99 96 79
8892.941799932054 -14325.909739578836 -157.87455377070378 165 169 170
7824.5712943502895 -13587.509080142227 -407.61995158977766 55 61 64
8633.146170645623 -14375.054288744446 -146.54733379616144 126 126 124
6203.578990877346 -14781.742350496692 -91.5084860515093 139 134 130
7352.972797941439 -13216.274715728243 -500.6844416846533 65 70 73
7972.627283510275 -13524.431311875625 -438.35046464943474 21 28 38
7946.616567097645 -13451.907580666331 -460.96451395132794 66 67 71
8340.584379435715 -13927.08025673598 -306.5224269873517 176 183 194
8006.854082184851 -13278.354066432938 -513.5701095870202 36 39 44
7940.398427858393 -14846.335657510834 -15.533608793207241 161 160 160
7811.218434740627 -13730.179092811184 -372.44238186603974 57 65 69
8418.824056892308 -14292.970591462978 -201.32467182757478 147 146 144
8028.803172572022 -13484.7361935831 -460.5715588652573 65 67 67
7717.877892316865 -13708.845606813516 -377.42706946385 220 223 224
5519.68651405818 -13683.514053364594 -430.47727528657197 60 58 62
8448.654761170457 -14049.89931171134 -269.64274496176614 137 135 128
8995.058482961282 -14434.63934254893 -94.59112623374618 43 44 44
6534.167285577554 -14258.625161556261 -232.18936621592013 194 194 193
7370.235836726828 -13266.765017286656 -495.0802742877515 56 64 70
7207.88447085005 -13268.159044344755 -487.5937675857049 61 78 86
7808.284720746847 -14670.516794450305 -89.07244510161983 188 187 183
5518.776880971947 -15125.496461660814 -6.325932153635369 68 57 51
8012.8135735079495 -13442.584580878447 -468.3380587929301 41 42 45
5527.508088273521 -14130.454844899632 -264.4924725684705 109 109 110
8865.429417643358 -14305.878573409855 -182.79883792175087 106 106 96
8004.514664381611 -13351.56044397536 -495.80636067139926 29 35 43
7835.482096330092 -14644.252532206354 -97.80411865029374 80 71 70
8050.323001256495 -14852.564774930834 44.02446722967658 81 86 89
8455.412465451498 -13943.402309765786 -320.810594616895 135 122 109
8573.676400555032 -14120.748968552383 -256.97417197169796 149 151 155
7903.759524317657 -13376.016475515034 -476.14214172307464 49 59 70
7782.034978611373 -13723.13650479242 -338.7272113544547 66 65 70
8840.448922863723 -14285.719043822904 -190.72860863464598 95 91 80
8177.199928293753 -14024.028767654392 -290.5573649039881 55 61 70
7968.9911554544215 -13455.386350014425 -462.9919141681716 48 53 53
8042.35824709289 -13487.45546872618 -466.3832323945423 29 31 42
8343.705796060267 -14211.286113808892 -221.58686259302755 29 33 41
8250.342362961275 -13776.128327917506 -365.3933125542037 58 55 60
7818.4720521247 -13749.10494013931 -345.1879522361426 187 188 191
7997.169192422062 -13314.059277468647 -500.42605487379075 114 111 101
8709.947132325406 -14582.129563506407 -54.785625395483876 172 172 170
9015.902484132896 -14363.047011317565 -125.16595942290644 112 121 124
7833.267710676528 -13338.980797660353 -496.7317201390999 159 166 170
8721.086809529017 -14387.078959458171 -146.76551252327982 35 34 40
7647.322861319534 -13457.879846059399 -458.4096007972711 55 58 67
5902.872872646503 -13674.907753004589 -427.2621973903253 144 149 154
8342.039607103283 -13900.406992948658 -334.24591783903037 152 150 148
8147.905244162512 -13645.497833286749 -387.13135685393536 122 125 125
8013.595047775809 -13397.687729530273 -484.1303454058271 131 124 109
7578.981169277272 -13388.30952159345 -464.7257226051575 144 145 144
8343.985929396 -13935.92938122831 -305.6181442038447 61 67 73
7835.482096330092 -14644.252532206354 -97.80411865029374 80 71 70
8339.199262979455 -13887.5417007542 -325.36998907963505 168 178 182
8473.718320380633 -14066.175925638852 -275.9627944078086 27 34 53
7916.656643732833 -13440.055567384166 -448.3189665088859 103 105 108
6746.051634477016 -14653.733859712815 -121.5144832619029 140 134 123
8010.617574194677 -13454.90944202924 -465.9354316216414 34 39 45
6666.817608993315 -14121.387791101895 -279.20334329993005 76 75 78
6223.343849739409 -13287.99940959329 -518.9879676613314 89 90 89
8340.024894665323 -14208.804425914996 -222.56906562101207 32 36 39
8443.620474621946 -13988.563856748766 -282.0273225437372 59 69 78
7868.767387591947 -13393.458959341053 -455.1059744135847 127 126 125
6629.874227354524 -14085.675573679264 -289.8374109195164 71 70 75
8006.225482399148 -13433.513554789835 -471.2404322008444 50 44 45
6487.572282275761 -14258.911094847872 -232.67246252423905 66 64 73
7566.711746255011 -13400.453400498553 -456.6808641385093 76 78 86
7990.451455985823 -13366.779923407992 -484.7111192217875 140 128 123
7912.256108523242 -14523.928740155598 -143.78311308807773 133 129 128
8748.821138588572 -14223.700209994617 -218.584118838629 96 82 70
8747.908618483278 -14263.960235494553 -186.66047607646786 134 140 144
7586.089982681274 -14881.647946631334 25.47207631916583 102 99 98
8248.890891663985 -14133.542682155146 -256.82091933248137 86 85 94
8053.111542083677 -13895.893794407906 -332.75039704413683 67 73 77
7620.4953635220845 -13648.560713602626 -400.85907106921974 27 35 42
5342.935765038361 -13773.275564685442 -390.1098362101525 36 40 51
7907.753667256952 -13426.885649184029 -449.20216000028375 103 103 107
8120.902379178911 -13577.124503503628 -435.18916487986905 128 117 110
8301.317764242538 -14187.027820943847 -240.89897794429882 34 39 46
8823.271120284975 -14308.665979639261 -174.3230610806326 138 142 146
7838.322256835778 -14875.460903273193 27.32404294334375 33 40 46
5786.38752560582 -13381.850347347854 -479.2245301665553 136 115 104
8903.110884662516 -14342.835183613293 -170.45075836047982 66 62 61
7871.901588165467 -13638.709740235436 -404.65547973227564 23 28 36
7778.340309743742 -13271.16418037038 -491.1625147542457 74 75 77
7805.259190034917 -13692.787369586502 -379.77613896438527 143 146 146
8335.808006341398 -13929.38909636663 -315.3319900978294 174 182 187
7981.692100262831 -13283.855274720652 -503.7078804354056 44 46 48
7503.299407163249 -13334.298888497517 -470.94404076794723 182 183 181
8729.858757248858 -14225.934859297144 -213.66828849963292 139 129 127
8175.253723580473 -13612.02047568468 -417.30374000705996 123 120 109
8613.990877289329 -14279.18865432433 -190.82583072144718 123 124 123
8339.644758726494 -13921.400785267591 -324.4745551873377 152 140 139
4443.729261522435 -15206.94751456656 -4.498549695953211 55 50 49
8031.978473848394 -14847.332520806054 59.94073509923249 55 59 63
7598.217578463071 -13511.151496169605 -451.4435304112251 164 156 143
8710.218913721308 -14231.466452609806 -215.51896777874688 139 129 127
6717.093708529712 -14459.832188316164 -182.55051775685283 92 96 98
8586.851366735567 -14119.126482780164 -258.6091087309537 94 92 88
9129.602987101925 -14367.530234355045 -108.30606483577826 56 54 55
8250.080430854472 -14136.000457161927 -256.58327701711613 33 33 41
7742.854896727098 -13705.67957681634 -381.3320293355808 130 130 129
6791.246953201248 -13360.250967402711 -488.41780495847524 154 153 148
7997.9367197705815 -13417.49497349501 -474.35540454471834 115 106 98
8065.160222449605 -14014.434085651554 -296.3588455800622 159 163 167
6113.804736430824 -13982.022854172243 -338.8590479162694 26 36 46
7542.522102294297 -13626.188550997447 -410.33653594952483 144 153 151
5862.122507859776 -14468.928262666348 -171.74174219013355 138 137 140
7625.033244189127 -14945.838792751774 60.72017862742207 149 146 140
7628.330916034003 -13454.308121573542 -447.4710946689265 60 62 66
8180.06962314355 -14017.627642848116 -281.5225237038001 156 161 165
8010.3042070232705 -14847.211033267184 50.324190219456185 147 150 151
8371.414259725845 -14295.451723945422 -206.99640607046274 150 145 146
9013.86773850655 -14361.036560762053 -138.1549691185768 74 79 83
7794.701760891669 -13256.405852872218 -496.86188709581836 160 168 168
5672.7556796386825 -14273.421972865994 -235.2380095226472 140 141 148
8016.917951183473 -14846.507641694456 56.21552732516929 52 59 67
7040.811049714173 -13341.186079283543 -492.3523097586557 137 137 127
7884.589868639047 -13408.513163393623 -453.81994587925436 92 96 98
7543.992730629363 -13624.020998572909 -413.16625777766586 50 56 62
8350.848813517257 -13839.607624221206 -357.08530412696143 139 137 133
8869.15681825476 -14337.715576835695 -146.46755988822872 181 182 183
8416.893799805024 -13916.185286567443 -331.8939817347144 55 56 60
8445.220542854151 -13992.794836160265 -282.33168877272004 44 58 69
7568.046000374088 -13379.586236083262 -467.25367897309826 155 158 162
8686.71690353336 -14209.234757502432 -212.529926047724 50 47 49
8889.062275174441 -14339.053011696016 -155.32631080168454 153 151 152
7910.272840406235 -13435.1367059578 -451.7198072900847 174 185 189
8329.601246217866 -14451.648312151145 -157.56599839540993 180 179 174
8620.61870723679 -14460.917826606006 -125.09978368604479 155 154 156
8478.197712803949 -14068.680064878858 -274.58796586915895 25 32 45
8708.700258631688 -14216.294580757132 -216.99980795001886 38 32 34
8006.7866826046065 -13464.642464088844 -461.4687243423441 106 107 100
8563.352181264932 -14130.633446178745 -240.65168658127013 100 105 105
7374.844030707998 -13447.250812407692 -445.2058263823573 98 111 127
8250.139824367383 -14133.794212899971 -263.9654073515733 32 31 37
8041.472247468163 -14682.93416622731 -58.70931872545199 88 77 74
6931.81756870137 -13965.039838938877 -338.98904764627554 185 185 187
7748.3100610267775 -13958.016166728576 -296.63596006257416 144 153 160
6150.991226748677 -14692.289007359346 -100.53209393239969 102 104 107
8464.630971738286 -14052.735091613627 -279.2841125991001 20 23 31
7730.398259927438 -14842.097968656142 -20.825482489376704 127 126 127
8364.558585855879 -13952.380463026224 -299.0894165834608 150 162 166
8031.7986702707085 -13535.197623030592 -440.61487483113643 173 177 179
8030.625355263087 -14843.664903562087 54.644926256807246 53 57 69
4977.463094988844 -15484.380636669934 120.18921617168127 98 89 87
7996.161070389524 -13378.893854674721 -483.7066463012464 135 133 124
7796.614564633985 -13258.325765428272 -498.57892633393647 68 77 82
8019.887225489768 -13343.72443875105 -503.47416259490194 34 38 45
8567.487507899741 -14364.992747576309 -174.74692682855903 154 153 148
7396.832245315598 -13458.76403503926 -448.0992468236748 148 155 159
8567.210871844303 -14119.08437791514 -259.4305617772438 57 47 48
7981.80360718877 -13552.545431296934 -430.6593847342391 157 159 160
8027.566479395889 -14855.108849741093 41.20283172154283 63 66 67
6021.504563221435 -14402.72978715561 -188.74841443930825 149 158 161
8452.543962175143 -13987.04984849372 -290.7469622080805 34 36 42
5356.466896083793 -13810.149885167817 -376.26999922067233 40 42 41
8834.739458390988 -14318.60024171214 -174.18866790931563 39 35 34
8020.691205788089 -14847.67416078254 48.83976088459701 51 60 67
7757.907886560439 -14890.502251306334 28.09688176234189 45 45 50
8607.773996198835 -14406.250837245854 -121.38410090188741 100 99 97
7781.437892160122 -13279.527394793467 -502.40208502710294 58 65 65
8513.230875135818 -14086.900357590437 -260.6161295959548 41 42 47
8027.895278717272 -13530.840392681135 -444.1335638915971 46 41 39
8002.724600492042 -13369.530699265157 -490.4219820103355 137 128 116
8561.70416152117 -14527.666601086934 -102.53929560449775 86 78 76
6672.163821951693 -15019.276134906137 11.208988493597612 44 41 42
8823.582014029664 -14305.088499511548 -172.06145839731204 48 43 41
8037.829452061892 -14848.062614715305 51.68505070719931 15 28 31
8517.582313055282 -14125.063104411587 -259.5564279185829 124 129 132
8275.097540610386 -13822.658502254893 -327.62600776859745 145 149 155
7867.612894699705 -13607.442188094332 -400.84545159164975 56 55 59
8210.835214909672 -14149.431504827362 -241.4118852846068 130 128 129
8701.593963384903 -14248.61500077757 -207.7236782630125 116 102 86
8709.8128655077 -14386.501063071244 -135.2475639645468 108 113 115
8999.333110384729 -14357.333718370679 -132.59846976679583 132 132 138
7829.500572698826 -13821.617432828605 -357.164172403266 159 161 160
5364.834841557009 -13825.67359943856 -344.51271861132216 172 157 136
6541.537223884881 -14241.19671887576 -246.0172281753743 155 158 159
8290.32761515452 -13683.253576522513 -386.34069974699185 140 114 95
7799.596763502469 -14546.08404475585 -139.71096212301183 141 137 130
7686.323957016026 -14784.80882636662 -43.22257681466799 82 75 68
8254.258139974607 -14134.967200591589 -262.6322601396228 147 143 147
7363.442875413291 -13277.135319681884 -495.7746552687011 63 66 73
7283.693716773906 -14653.8876859156 -103.2503978134108 88 93 94
8383.774010911826 -13892.362677076253 -337.29879937883544 148 142 129
8024.068728947835 -13327.63286013354 -505.2526518079476 30 33 37
8451.285486121238 -13985.182583735046 -289.65937231563413 174 183 185
8345.6555003848 -13939.815824923291 -304.722582558385 74 85 89
6996.119102361501 -13353.647961121365 -484.7826517561004 172 170 163
5366.155326920316 -13837.090310985854 -345.60884792763545 75 77 90
7257.1899049704125 -13296.619817855955 -484.58657874611515 124 89 87
8148.760344030658 -14029.223868937415 -284.5100694703512 71 70 76
7040.642270657698 -13800.642519152581 -381.1101990391598 172 172 172
7581.286977333768 -13517.202845090957 -406.1852665025595 187 196 199
5734.435191112606 -14793.468230061426 -72.35211367094732 123 124 128
8126.026943559024 -14397.286149792091 -181.9142926883311 165 162 157
9162.693178164387 -14364.9595696422 -121.73386989423032 155 153 156
7542.3224447504335 -14628.272696353539 -98.98471792284107 157 155 156
6059.999192667206 -13981.482233271094 -339.589291770097 112 112 111
9155.40441038663 -14366.269511627854 -119.91644395490233 116 118 117
7992.215943386602 -13276.617524520687 -506.85109540418375 129 126 111
7786.888308395731 -14879.131633381723 34.29732296947359 125 128 132
7751.244144255718 -13975.327498337136 -296.51463474946326 188 192 188
7620.802187373194 -14946.509855141814 64.41523460344361 144 139 133
7478.611688894804 -13307.572075486678 -476.56421260602775 181 182 179
7876.221688776382 -13612.25831079346 -406.4705071838647 139 149 155
8023.933173506518 -13415.868499718223 -481.66673154606053 30 34 36
8294.197367332728 -13754.155148762791 -374.7974775227714 66 55 48
8343.951837396682 -14216.236127891863 -226.76840512269544 148 148 152
8094.461470885739 -13552.416208840528 -444.5093668092219 113 105 93
7885.944214233908 -13617.156545555541 -401.80268160091333 62 69 77
7807.206801760122 -13749.775357473867 -369.4887016926001 145 146 151
5835.550263252054 -14283.988368018747 -208.3283171388148 102 104 112
7537.767024499608 -13373.689258468488 -458.08787344360184 80 79 81
5412.601554119636 -13872.140178548405 -357.3685141730533 33 38 34
6575.224491564257 -14499.709814340024 -151.55960684600475 105 111 114
8877.741408761636 -14326.619920628515 -160.57146662822493 160 164 166
7160.703192982538 -13297.039413195698 -483.7688454646385 133 134 135
7988.33665889767 -13342.264178776888 -491.05442574204324 142 139 120
7228.472222386704 -14636.733558517079 -91.87596304622096 53 45 48
8000.144750652018 -13405.368136314471 -481.51763848280274 34 35 37
7869.011275598233 -13628.349341731275 -397.8859606007901 158 161 163
8949.671620880994 -14425.073785653394 -108.85000793845573 52 57 63
8432.580212162606 -14022.33694238713 -286.1438593804876 104 103 109
7823.85409420348 -13732.361735061344 -359.43136253065035 133 137 140
9053.312656475573 -14375.071181568697 -133.5484792724239 145 145 141
8227.138530122624 -13862.335046851244 -358.6233742314224 55 55 55
6238.951114189071 -13288.083328688665 -512.6711506165436 175 171 167
8146.26939217443 -14129.344907747198 -269.63272880324996 46 39 39
8006.7866826046065 -13464.642464088844 -461.4687243423441 106 107 100
7542.774984352071 -14984.577682800582 64.09395612226285 147 145 142
7988.212462641959 -13396.69057030595 -478.99452794336736 144 146 137
7184.140041193 -13257.45282769234 -486.907461247011 164 162 153
8372.298613343393 -13958.986333713994 -301.09846963804586 70 84 100
8019.735929714937 -13488.919060195723 -457.27117358312245 118 92 78
8578.44836830308 -14298.243928242335 -190.41179908299915 27 26 31
7246.166902098103 -14824.615452385699 -32.23161861017882 77 82 88
8053.111542083677 -13895.893794407906 -332.75039704413683 67 73 77
7875.43049285244 -13419.438350709104 -473.13286089951856 116 128 135
8758.22931092495 -14394.050000014095 -128.4767518079569 120 118 119
8257.295421719427 -13816.469932560894 -329.4243057651444 71 78 85
8442.53350637433 -13989.184903031823 -284.84705186453186 153 155 149
8249.85692699456 -14136.700056394122 -259.9538935227453 24 31 42
7371.434221370663 -13540.312222687875 -448.75561890627415 101 98 79
8002.661170812387 -13432.52406675626 -469.9581498981734 121 121 117
7206.219647153282 -14685.233698896764 -93.58892751010048 133 133 127
8171.310904091879 -13604.877914260258 -424.68256505477115 129 121 105
8099.7884932404495 -13560.63814855283 -442.271618955901 108 110 103
5828.002389273718 -14372.456365210639 -210.22112246262492 66 65 71
7912.875970585458 -13430.899261205048 -448.68771253123043 96 101 103
6009.768275761519 -13340.05113425988 -509.18675371353606 146 157 159
9024.906697624068 -14364.06628217072 -134.28872906940774 69 79 86
8549.571923770472 -14366.655604686242 -175.34911653439875 165 165 159
7648.799286309046 -14944.855648928047 68.26405886839639 114 116 114
8336.318758347841 -13896.16729065081 -336.8857971241128 165 164 157
8433.764597851949 -14029.865938027531 -287.8466269188468 40 32 35
7247.9744814367805 -13284.853977388757 -495.24329901449954 174 166 149
8513.230875135818 -14086.900357590437 -260.6161295959548 41 42 47
7186.326517566906 -13263.289997678912 -494.4711978136021 170 171 168
7725.514377909207 -14913.7622535524 28.39734932674425 152 154 159
8058.01619649327 -13507.969623360046 -461.9542817222565 43 47 49
8021.079202906042 -13447.842872145306 -470.0079949111491 49 47 50
5414.074246738853 -15284.879453906124 56.33367232684714 104 100 100
7142.697238501219 -14413.618754615567 -201.90516524343832 86 85 89
8343.014462704878 -14211.908156429188 -223.87153833222982 32 35 43
8208.99799909696 -13695.815680568636 -380.4667025314103 48 44 46
8565.650368074943 -14331.527708325857 -180.4981963918783 128 132 138
5400.057427805106 -13857.844236583316 -338.00544754166293 80 88 99
6430.384292123027 -13877.14333501992 -361.45161092771133 150 139 118
5982.156260677229 -13708.533596211408 -413.57329801748654 146 152 159
9508.477308932232 -14166.044636749642 -188.77278010359558 148 148 143
5806.827759583237 -14279.154277524724 -231.87253420413538 112 118 124
8336.358090092926 -14214.691175057416 -231.44729667775917 28 31 41
6978.8912237874 -14500.813332684662 -166.37166842010828 97 96 103
8151.08064894533 -13774.854103562258 -361.63869833608254 72 70 69
5866.434498968474 -14433.365722799042 -185.4341557657821 165 165 165
8013.595047775809 -13397.687729530273 -484.1303454058271 131 124 109
7546.42334330138 -13385.631136533242 -459.590254150248 73 75 80
6787.997166385346 -14688.644210528737 -115.55310578533799 33 34 38
8084.986337437285 -13606.543742347218 -414.52361254905446 58 45 47
8309.136235290247 -13859.378115190113 -342.22035334513936 36 39 44
9110.631347295397 -14364.55367859272 -122.26748926584978 161 166 170
6605.159787454587 -15034.257514666157 13.700668463446679 123 124 127
8704.509071880299 -14236.576643112057 -212.43065530841127 54 49 47
7184.995973588951 -13569.862810272942 -441.75455316571595 39 45 51
8343.98711503048 -14213.638569674842 -224.93632374072507 142 146 148
6993.721538756501 -13352.065743958334 -481.6927912432946 169 166 164
7098.797178178173 -14551.1136987008 -143.4127868584967 133 132 139
7584.357815010432 -15083.504177047087 138.67173830024407 40 46 56
8480.464555478171 -14306.989955826735 -178.2584529620761 115 120 123
8714.842762692282 -14382.89053896067 -148.45088276967172 34 36 41
7681.922427142574 -14896.557859142675 14.718563512165026 61 58 60
7796.247933279633 -14135.368809784179 -272.02179423991305 94 95 100
8288.735384452486 -14193.228678372914 -229.42957568127923 119 125 129
8311.319930424203 -13770.124747157322 -372.67497365330337 61 57 56
8831.191411171194 -14323.339940744348 -177.58493247300768 120 123 129
7851.643788233986 -13372.79453778095 -466.6231285282779 98 100 104
7568.617316171974 -13876.570339595728 -321.9777908907357 155 140 134
8115.931086324032 -13554.663366890272 -445.3812521780592 128 118 107
9110.631347295393 -14364.553678592722 -122.26748926585012 161 166 170
7963.806584189773 -13280.000805681364 -501.0367206178965 104 96 85
7791.096172951347 -13267.372326229048 -489.7959491806768 164 171 173
7237.236799873684 -14633.947812471262 -92.20535412320561 53 45 48
6010.608844062992 -13341.024071416576 -501.23346662197906 137 148 155
8024.5198162683055 -13538.970082962278 -440.26387512080555 45 44 48
9135.936697562576 -14368.035750452693 -119.6629968505196 135 102 82
7541.320958962792 -13634.299867787275 -394.7689259528619 66 69 72
7569.339307717085 -13280.588336945737 -486.83308577613565 82 81 77
8139.928915876337 -13587.140083481692 -431.9595399893695 42 41 42
8005.773097708479 -13876.386586695036 -341.22566057870534 48 56 66
8346.997518052725 -14211.807866379624 -219.71236908553183 114 117 119
3733.1904321227476 -15381.58215574486 36.043044103284466 141 137 137
7805.423181882849 -13755.286161776598 -352.4035434124741 49 50 54
8365.158983135381 -14246.892124974805 -221.08538626640419 130 127 117
7301.824848470132 -14624.742054548109 -101.75512075015916 125 134 140
6944.297685144042 -13359.499229408586 -482.88117740841636 164 165 165
8443.609936002355 -13990.40812715215 -280.9651714055994 101 111 128
6640.373730185636 -14177.295884618188 -263.5184585822683 168 172 174
8155.268191580247 -13591.783732328175 -431.18918825358327 42 48 55
5346.633050764628 -13798.403164823096 -380.17405532586963 36 39 36
7996.492516431892 -13389.517834380427 -484.16703849059587 49 49 52
8001.332613392477 -13287.513944768727 -503.64800888927135 111 107 96
7499.227703592796 -13514.410803550483 -450.3776998255479 175 165 153
8325.754587169373 -13920.705121961553 -309.2836859395426 66 85 98
6678.373794257587 -14139.63352511357 -286.15379986284677 48 51 55
7818.344603767373 -13731.902004790974 -355.45770137122133 67 75 83
6724.647547368352 -13367.680862970461 -467.37072852927827 155 158 162
6102.156444133932 -13735.349538136286 -392.1611038776275 143 140 135
8359.328617012883 -14372.444344582815 -181.35619260063504 165 167 165
6862.925383545826 -14913.162232893043 -10.16359414119929 39 42 43
8360.090306183001 -14421.636609637824 -160.17745707319216 144 140 133
7255.04895537359 -13290.704724502302 -493.077092073438 153 153 150
8034.0387609785785 -13470.101934325585 -467.53398401511475 139 128 111
8652.101104762014 -14452.217002667729 -123.9849698946616 58 63 69
8336.224970080833 -13922.122035185293 -320.78564227719903 61 78 92
5862.765410804815 -13164.69821395527 -570.7689578989641 47 53 57
6925.458870266223 -14446.102958623656 -167.72190776232637 22 26 36
9025.079805377281 -14364.624219053807 -134.61904672454182 90 86 84
7632.858392754047 -13580.464312916252 -428.4072588845488 67 88 102
5453.545186005093 -14606.475956983604 -144.15921409638165 41 46 41
8680.825594691974 -14214.097700992606 -210.73681987307023 130 141 140
9120.479701732931 -14372.674771146378 -101.39242347878366 38 35 40
8231.892606360903 -14412.073961074087 -170.41944234147792 187 183 174
8316.5077947803 -13856.243715720826 -323.5961154550523 154 158 163
7435.246072177274 -13493.810498627125 -454.4314084118827 209 151 148
8480.95050358782 -13932.367853063339 -323.8126515520256 195 202 210
6606.696056764812 -14273.739417601397 -233.68893472160943 39 51 67
7990.369925261826 -13500.220689420767 -454.7322139551595 57 52 51
8992.558501737372 -14446.318563288092 -72.38157492767802 117 119 124
8114.303745588708 -13625.716688338654 -398.5086323373057 57 60 64
6512.395308376648 -14298.620264819549 -222.50020977979295 61 59 62
7187.643299417633 -13262.526723725954 -486.48931442530153 168 164 159
8004.824695186515 -13326.639786568016 -499.48376375404155 121 109 100
7938.772589357552 -14828.711679286209 15.224432612063923 116 122 126
8846.022733078033 -14312.18576937749 -166.3277358992894 143 143 145
8325.544905093358 -14441.456696848352 -157.53117579809117 61 52 50
8459.850882637127 -14065.453478940824 -265.25426061151944 137 135 133
7454.1585157939835 -13486.75723773057 -459.750912269241 71 50 53
8035.2381360728905 -14850.977728256312 35.90436350123864 119 122 127
7573.016915935218 -13390.100267711883 -473.38330422659254 31 37 45
5555.969223264888 -14145.958340338791 -253.78977192680836 124 129 133
7324.717983867424 -14675.513898162222 -91.81516394437705 141 143 142
7840.076016698531 -14094.495526384311 -262.1085407827257 78 81 95
6043.949351799157 -14603.580778072152 -143.07255174925098 46 46 53
8302.752144380758 -14188.014368468506 -238.16726298326955 99 104 105
7892.887988099515 -13415.486183322259 -472.5614658762297 45 53 55
9129.602987101925 -14367.530234355045 -108.30606483577826 56 54 55
8296.95904106532 -13723.836617234088 -382.0611059763371 48 49 48
7819.90892066718 -13756.19381735484 -359.3955396553451 143 145 145
8451.800205465888 -13987.774504145918 -294.04286344339437 45 50 61
7882.187046488993 -13392.09541091241 -476.9944926221236 142 142 139
8440.792818664573 -13933.563050853145 -325.8737446854137 37 41 50
8979.763898915895 -14358.056337391345 -129.9640697375887 105 112 117
8259.331420899834 -14182.72533722971 -243.86626728827554 55 54 59
8223.162043138387 -13642.545381612785 -405.933508991813 108 106 93
7390.32419945649 -13286.186510509691 -505.24939575988554 78 70 67
7997.570792217682 -13306.664286931407 -499.5957004152887 139 139 127
8045.4292515128745 -13477.705920532086 -468.46680866366415 141 137 117
5997.641103780108 -13829.757034367016 -343.0302779662818 171 173 173
8452.26490367793 -14033.887332845394 -287.841596028655 139 129 126
8371.16041336935 -14228.031141981219 -230.14907381365416 22 26 31
7695.278610886872 -13290.622216400507 -494.68684093780746 79 73 66
7579.788359847986 -13645.49694947441 -375.25240525323073 63 69 74
5855.414525327401 -14262.923354610188 -190.41498216828907 37 51 70
9525.825565402081 -14159.464459048128 -194.43871681912293 201 206 210
8280.928046393912 -13821.202629272126 -342.32986849797305 186 197 203
7509.064446184547 -13620.638891969591 -394.4955547239845 160 164 168
8000.770556055259 -13383.488337001374 -482.5429507112602 132 117 99
8370.962291955984 -13956.529202976652 -305.02559452729014 175 179 189
6930.641204759229 -14449.784725229927 -166.38971042243722 34 36 45
5895.820639315496 -14646.516203220259 -120.35694504820785 120 122 124
8116.868659531074 -13558.784430541158 -445.121762376686 146 146 138
7183.99334517419 -13259.967454510921 -489.0115257443743 47 63 72
8102.320859634665 -13542.069082747812 -450.4165181157213 105 112 119
6445.046605536569 -14277.84674074826 -230.66474347533543 164 167 172
7423.233045228635 -13493.670869413132 -451.7207003034338 189 191 189
6744.722356586448 -13997.965261495083 -331.303059298889 145 148 150
8764.460598904661 -14263.770975730233 -196.59830152278994 121 125 133
8784.643276380595 -14495.66217683021 -70.15219003489406 50 50 50
8007.617922631256 -13331.186012395807 -499.97998659129576 130 119 100
7006.688295285952 -13959.680652574587 -335.80138174504333 61 57 56
7225.254484060518 -13574.776186939449 -435.84741220512035 35 38 51
8026.480010032873 -13330.680282595335 -501.81600733682626 117 109 91
5529.933210590394 -14024.42339075245 -293.54778066271837 67 71 78
8822.473781953377 -14306.496858714367 -167.16111531193266 125 127 131
8027.476949187086 -13428.630971261975 -480.88154104350855 43 45 43
6838.38881340316 -13665.966230179894 -420.1929438068836 158 157 154
7877.116254974495 -14847.054607004016 -5.922959192691609 141 141 143
7287.95490224546 -13491.206761324176 -464.09443187787275 126 120 120
8951.861452626268 -14341.382961751237 -140.43810919841897 147 149 154
7884.335363678258 -13379.514240783983 -476.1427698253598 32 36 47
3984.8420166539536 -15490.864299195306 83.99097131634291 63 55 53
8499.560787311762 -13960.991545464865 -307.685853009277 133 134 132
7199.840240876434 -14682.256720002853 -95.03179032025508 131 132 130
8654.299791807287 -14269.391972881429 -194.35943400915662 49 49 51
8572.913569639944 -14139.530124044039 -236.91886264364018 124 128 128
8657.346675552355 -14368.40671737703 -151.2059564676987 51 50 55
7961.988138771065 -13911.066230034206 -314.37733326733 159 161 160
7997.9367197705815 -13417.49497349501 -474.35540454471834 115 106 98
5840.376371617754 -14267.589311252357 -203.10333960342896 48 53 62
6025.40917683788 -14403.98409963805 -197.5399269074974 158 160 165
8750.906287478603 -14257.73612672372 -187.0146762378899 42 41 45
6570.735952197278 -14479.639867811962 -155.80892804759142 47 46 54
8009.009979287666 -13404.76964373363 -483.85731794024485 137 134 128
6337.99073186299 -13648.275168050992 -438.9162170520073 152 149 148
7934.534118838202 -14454.105430651984 -169.76915625232698 73 69 65
8988.195592518774 -14357.248331374676 -133.00151161313264 55 53 56
7415.419948666621 -14661.591806810366 -95.28312184327561 113 105 98
7972.9859721436405 -14819.887724417329 17.714520715814864 121 122 127
7996.492516431892 -13389.517834380427 -484.16703849059587 49 49 52
8292.137482297447 -14200.413609120917 -232.05262927837242 39 42 48
8592.372776608776 -14147.922149847334 -248.35790097738513 140 134 129
8326.465078034342 -13926.173445243798 -317.4346231296922 173 182 189
7612.5663389438605 -13442.120877404024 -440.3294673222358 178 182 178
8300.752112015389 -14194.727196088861 -228.97388823290865 45 47 49
9004.773465707078 -14365.299164680253 -129.56223631074576 48 50 54
8279.082876739416 -13832.908209861038 -325.1806626627716 165 169 175
5492.548977729751 -14419.395190630505 -172.22984185047267 147 151 160
7854.949837754647 -13346.41910718051 -464.94010093028953 78 82 85
9006.769316634054 -14362.597014842073 -128.71456558213058 41 41 40
7885.286911196341 -13619.582268654818 -404.05665997305414 135 136 139
8012.290213042327 -13304.441946767201 -505.18375929738846 30 35 37
8011.167201187884 -13471.292759981377 -460.1583809772367 73 70 66
7567.705615749928 -13339.889594252725 -490.6383092243302 219 170 85
7610.247257024813 -13444.759699664563 -445.55985242335885 28 32 43
7816.861207498867 -13758.506044949438 -370.3139893570863 162 161 158
5997.518448363526 -14331.06946280623 -297.74488722483414 77 78 81
8695.052374606628 -14216.414924733657 -214.93680145553066 163 167 173
7641.012234936496 -15073.57890259549 132.91411569484126 92 97 96
7578.981169277269 -13388.30952159345 -464.72572260515796 144 145 144
8003.742464222475 -13549.610541367081 -428.91788401668225 84 94 100
9092.258380524961 -14370.302395838034 -126.47435087364639 45 39 39
7992.1061097796 -13497.097518039975 -454.73600433032385 60 53 49
8365.345629043235 -13937.000290118474 -316.9689579387539 179 175 171
6536.319664430596 -14486.39533477412 -176.32428941058154 152 155 160
7607.50055501245 -14954.484388945417 55.33880457198051 46 56 63
6415.501273855905 -14773.72504886604 -41.24751787683887 28 33 38
7992.765577148948 -13319.596249351704 -496.68696545264953 58 58 55
5984.384615864363 -13681.425585322606 -428.2409439569248 186 149 130
9019.99524942148 -14443.303453474613 -76.55824846153399 29 43 49
5140.470007001128 -15211.482172861173 16.028263130995143 139 136 137
8293.828676167874 -14188.192219613487 -228.79708832929978 54 53 58
8054.26511566651 -14842.4885963169 56.61333548388163 114 114 122
7385.64043708423 -13509.78242566556 -454.2769652061127 90 40 40
8832.971649927447 -14325.550409540849 -173.55165225409337 55 56 61
6744.722356586459 -13997.965261495083 -331.3030592988878 145 148 150
8566.053264275577 -14334.785460034615 -163.91453546612223 64 63 68
8004.204715906555 -13413.740152200358 -478.22993177528207 68 66 66
7929.681167461034 -13327.655667962557 -494.4597883073831 168 166 158
8445.030964405003 -13985.569701555363 -296.4131862275334 42 42 51
8568.844818091655 -14123.573617582811 -247.33678250001478 45 44 48
8336.224970080833 -13922.122035185293 -320.78564227719863 61 78 92
8958.159421206241 -14348.15248312761 -147.63735262681604 53 48 45
7606.294364574225 -13485.545385116679 -454.83486785720345 73 71 51
8357.42548368809 -13861.886480049323 -347.91527481340285 54 55 57
8052.2674089348 -14882.707718452451 56.75197788853331 133 133 136
8686.716903533357 -14209.234757502434 -212.5299260477243 50 47 49
7569.560282012442 -13404.459394638068 -450.5588564966713 37 44 54
6807.53593925967 -14194.485809734315 -250.94082757868227 123 130 130
5370.1255724058765 -13821.433533303265 -349.3883655866583 55 58 73
7885.28691119634 -13619.582268654818 -404.0566599730542 135 136 139
7854.949837754646 -13346.41910718051 -464.94010093029 78 82 85
7048.731647328569 -13367.922430532126 -482.92149800155414 163 158 152
7559.846952701992 -13378.078265064169 -480.3106364791354 28 37 40
7722.381741646209 -14540.941929604698 -152.51787614264762 68 64 65
9155.149409144138 -14392.394185801015 -106.13458526787909 112 103 97
9001.453150858297 -14375.924085548248 -142.46518087785753 33 33 33
8026.692852805373 -13446.104766294657 -471.48565646054067 61 60 56
8212.852077276248 -14103.549801071935 -273.3891509969025 130 133 135
8042.358247092889 -13487.45546872618 -466.38323239454263 29 31 42
7781.985203138356 -13275.23788043705 -479.97044328258096 146 150 150
7055.568381171995 -13570.489252441921 -449.12525258087373 157 144 139
8154.27480222569 -14010.072546514823 -287.9948884262103 163 172 175
7809.341894224401 -14934.512689150037 81.85049087296395 47 50 55
5992.578731411517 -14402.1531092385 -202.62178548537898 89 87 82
8752.562040684836 -14263.634876945574 -203.9675053611767 54 46 41
7829.103385304234 -14576.533758311323 -127.25191878613751 163 161 159
6200.481535072694 -13959.546801386192 -332.37272753128065 81 82 90
7966.336122289801 -13280.889303427439 -501.98592272866193 154 147 128
8075.921350023324 -13537.575072620699 -448.4219188456992 116 111 105
9154.481956724318 -14368.40732896896 -105.24939052271102 52 48 52
8336.318758347841 -13896.16729065081 -336.8857971241128 165 164 157
7993.22426833805 -14857.598341431587 30.31153625767081 39 43 46
8946.181416537427 -14339.054216945673 -142.8686346716548 164 174 182
8782.448901949208 -14491.603195723555 -70.23429730853019 146 144 146
6554.199510208622 -14272.47139213714 -238.23888718423825 119 116 114
7810.435885323084 -13757.732790420117 -365.1343837657621 130 144 149
8961.097947717068 -14347.247632704428 -153.97624901333526 39 38 37
8561.831921721227 -14520.444898477634 -105.76815935419005 169 169 167
6042.005689348332 -14682.003939525144 -126.84574161375618 62 70 80
6673.953436151414 -13670.12669611382 -423.5841259213313 171 171 171
8025.251664396737 -13494.22126692516 -458.04879915395173 138 130 118
6048.022025159369 -13142.625050277666 -564.0780912422349 80 75 70
8703.706971455817 -14381.194535145252 -144.67016751386836 49 49 51
7889.304578608616 -13416.093739596283 -443.05557012713854 172 179 183
7854.411781684784 -14625.738851047228 -106.12809273595622 172 169 167
8576.296129717102 -14334.660055110417 -164.64401303208325 49 51 52
8007.729224422338 -13309.502999588372 -503.4925700183142 40 40 46
7805.7785925888065 -13724.474725119388 -373.7501184358245 58 67 71
9001.211278819765 -14358.142061166836 -138.78997690357943 90 89 99
7359.808097426686 -13469.012889646092 -446.37032686166884 78 79 84
8166.402604542408 -14028.608128844215 -282.46010315203466 63 62 72
6079.612493919471 -14424.4705797792 -183.12643178612933 157 158 159
8931.103073160026 -14338.050428196324 -150.7199279318908 38 37 43
7175.122518895883 -13254.337346813954 -495.9790912217517 166 168 163
7781.68446581571 -14132.945150165713 -275.2348324241384 95 91 92
8892.984589247897 -14329.918017325364 -157.17073377748923 150 151 150
8615.64135638876 -14364.737027257468 -150.90540869220078 117 119 116
6544.781488475295 -14284.366191656964 -228.4850136455594 61 53 67
9056.678059579051 -14368.079195581164 -138.9354554190209 82 81 84
5716.071302584593 -14276.565798693091 -227.63473913121672 70 83 90
8376.14630437643 -14261.133424069034 -210.7816636136134 121 119 121
7734.460467510199 -15029.885775614242 118.80078153093069 146 147 147
7907.479226138828 -14686.618697943659 -75.7273274840525 102 94 91
7637.174583893257 -14947.254696364576 64.73394358264791 53 63 73
6829.847199175147 -14225.464177986089 -236.63090646365634 197 202 201
8687.706216206485 -14468.428515456411 -110.18406016195797 63 56 53
7842.102263127288 -13640.772436017165 -409.0074640075178 37 40 44
7484.404803275776 -13609.569388016527 -405.0952123782078 147 155 160
6284.518992362133 -14153.640534800581 -266.21996012579757 72 74 81
7715.487092259556 -13705.933278302038 -375.7568370988271 42 46 59
7978.06361051688 -13271.683459837428 -504.92384857536894 149 134 115
8444.647541917839 -13963.12574135552 -307.7201377537911 146 132 129
6959.605717088829 -14495.687602970895 -166.30075869548523 27 28 33
6483.626785017062 -14414.064553822947 -173.2446599336728 67 79 83
8174.084184894989 -14018.96763071623 -292.141703638332 52 48 49
8705.957481509602 -14264.197556559218 -208.44231558097735 99 94 91
7996.984329616588 -13449.169651128494 -467.13260227321325 109 111 115
7986.133195332125 -13305.422738603793 -499.11892626787915 62 59 51
8975.711806631809 -14357.212951900932 -138.86469366089713 29 32 37
8449.418286123164 -13983.975750259282 -291.83621765991404 38 42 51
7509.064446184547 -13620.638891969591 -394.4955547239845 160 164 168
7795.942311238802 -13252.059354725721 -493.98402158829174 169 172 171
8450.26301129909 -13946.08924487993 -318.7084807928639 137 116 105
3374.4512345277176 -15075.303295417287 -51.65533355031326 93 83 84
7538.636307285679 -14558.685742279782 -134.32497393876142 158 159 160
8002.269373867708 -13376.152408223557 -487.47549589316856 122 120 105
6593.623826678436 -15035.828962122032 21.553411722004753 147 150 153
8022.148850457367 -13350.820884229548 -501.1098077134436 44 44 45
7629.36593679559 -14948.255197047169 64.79472472528623 59 67 73
6962.6498509230405 -13936.17148259746 -333.87162851172315 168 157 145
9109.77829955662 -14414.87060099259 -92.91338658511691 35 36 40
8827.671053475542 -14309.336590913159 -174.8382394335751 76 80 84
8205.337427623077 -14076.888917126049 -257.26996893263686 101 96 90
8819.31519648554 -14464.768024680567 -109.39446122987592 152 146 136
7838.082191745417 -13379.35523250544 -462.92319888114116 138 143 147
8512.476484056977 -14054.257803345157 -280.37815044581 109 104 101
9008.68729525116 -14445.253755029224 -85.95290217494075 126 129 132
9134.948718246205 -14372.746037353085 -99.71162773428492 50 41 44
7219.852616887964 -13500.458954147201 -458.2213573331281 90 89 93
7809.908530311888 -13740.886421365729 -353.0756061788276 112 126 123
8364.185278085004 -13874.29684096262 -343.0995685753658 136 131 107
8647.5369780867 -14360.510555577703 -153.3893927725677 46 47 52
8254.793151544265 -14140.253709918446 -254.11788807189194 117 115 117
7283.693716773906 -14653.8876859156 -103.2503978134108 88 93 94
7487.952991323191 -14638.16242049428 -103.65092686039564 121 115 114
6633.988538433652 -14378.666641966563 -170.50054616650698 131 130 128
8894.317801330071 -14331.953518320102 -150.73118525062756 100 95 95
8483.505860935615 -14293.794085780351 -200.47202611925155 62 60 65
8350.365836737461 -14216.7936163662 -221.88865421104416 37 44 48
8512.252955971684 -14086.643936707003 -265.2326767032379 146 145 145
8520.486947948119 -14059.399840460608 -278.9773241823626 110 109 114
7815.255486527197 -13750.787583147237 -372.27081763259173 146 142 143
8361.641455870837 -13950.080769832062 -300.3502358913298 43 56 64
7756.945081778245 -14767.822677518097 -36.8887886454837 168 162 157
7575.758925766335 -14772.186023186938 -46.57132988822218 36 33 32
7878.477974647977 -13613.79885265968 -403.6885591907752 38 42 51
7517.28163719672 -13364.801141830912 -453.48673709040276 152 154 152
7695.871399832649 -13525.914635798536 -431.16285286528733 33 36 43
7812.130393709426 -14654.920971911495 -93.64694367405068 182 178 176
7810.320673860423 -13743.47197075429 -354.6290706654549 52 52 59
8575.315757077768 -14110.90181677898 -262.36612854080687 135 124 118
8652.200576361127 -14370.006155398216 -158.96951011986258 28 28 36
7568.046000374088 -13379.586236083262 -467.25367897309826 155 158 162
7193.98007250703 -13267.116511600714 -503.15166302224304 40 44 51
8717.98447894886 -14214.424339517676 -206.37212187441997 89 99 101
5739.970993545309 -13325.346342016099 -508.9996405953163 112 125 132
7884.058823558954 -13353.163543378654 -482.06845321820657 56 69 72
8353.272854868965 -14217.014543120064 -217.87287659913449 109 111 116
8443.609936002355 -13990.40812715215 -280.9651714055994 101 111 128
8370.219062879278 -13942.756897922027 -315.93064117054206 151 148 153
7891.094245008334 -14488.70840536353 -158.2432069056407 85 73 74
7900.8534755739975 -13411.903807900064 -468.1947005398934 152 155 155
8272.403126438308 -13722.486737057252 -374.73499484211806 163 162 160
6440.885359262678 -14745.49457353067 -79.06321338672103 31 33 35
7561.685951041468 -13337.951048843795 -488.7429791307772 93 87 83
5017.561006130604 -15398.039179767835 84.76052918088911 91 80 81
8716.126539721216 -14383.551009062578 -146.93994427287666 129 132 136
8025.651573568399 -13430.77169444423 -479.02354370914406 114 114 103
7905.655775000794 -13448.570359646783 -442.36779946282894 178 182 185
8765.80533394187 -14280.104900566252 -179.94981790473648 76 96 111
8353.992762876656 -14219.25898243118 -221.02693797238103 38 37 44
7555.988397908463 -13636.41290925957 -388.004096883837 141 145 152
8493.095220071047 -14292.680712248197 -200.19552463982976 128 130 135
8446.242687056814 -13987.097745460214 -276.40601063663985 69 86 92
8537.721793226852 -14118.28476434198 -259.7619234611464 54 49 48
6039.4914996638445 -13700.083346508653 -418.8046751041265 134 131 136
7184.037755871735 -13260.569245517752 -492.88974346016073 47 66 74
8765.226961783008 -14263.99308113158 -183.87545041284005 40 43 45
6370.904097998655 -14117.129431191464 -282.98236973859224 35 39 42
8241.71321565655 -13723.864594528479 -374.2757677908392 131 125 115
7579.701599154541 -13396.680805356511 -472.0131366600454 126 122 128
7803.589269915437 -13248.684482600449 -479.64211556217805 174 179 177
5849.222917353047 -14295.095794232588 -232.1393026143535 174 176 173
5856.9221361824975 -14451.458706774642 -173.4711003348353 98 106 115
8653.53954747445 -14451.118742109717 -121.27965266255264 53 57 62
8295.18827192663 -14189.208661799024 -235.40231821340342 43 48 55
6585.630823988291 -13642.510087371436 -442.3566236932443 68 63 59
7620.97067397486 -13668.047817419965 -393.9848926378134 113 120 127
8148.725190384891 -13641.621881555182 -391.2018154054323 53 51 54
8026.319110347736 -13525.875296177013 -443.25646972066454 142 148 151
8018.7495365284285 -13373.309591248513 -494.7424871685188 44 44 41
8569.917382766876 -14332.512044989919 -165.57378600663966 142 147 150
5322.341827186616 -13817.301601790143 -368.7266732616241 169 149 118
8775.305303047095 -14313.233618068103 -174.78096752580865 39 35 37
7435.785982038645 -13529.999113495469 -443.54283086186706 113 111 101
7988.234618108961 -13539.724308652143 -420.55458640977207 150 159 164
8363.903709870563 -14446.587346963917 -150.83280351193784 80 73 67
9018.627510779581 -14445.005007608488 -81.13681036730972 55 59 67
8484.581828633878 -13967.504468793557 -308.66031329093465 131 133 129
8571.83421463209 -14346.543641561997 -180.0321365918767 49 44 40
7993.770835858786 -13358.146137459724 -489.30661023942235 56 51 50
7933.506000965659 -13463.290128135022 -452.52087719206315 179 184 180
8523.684285869735 -14323.402699429273 -186.6427268459041 131 138 141
7641.927807563519 -13456.227035544973 -453.52504303369477 52 56 62
5286.68166981936 -13771.392541338058 -381.7936807130663 223 228 232
9029.739047776136 -14443.03187984377 -75.54550706331318 36 40 46
7858.412422089039 -14613.205079287047 -108.06750106334397 81 67 62
7349.462358991736 -13219.400703813832 -511.0188822851187 141 138 133
6539.081715034733 -14248.260822870354 -245.8700469481943 158 155 155
