ply
format ascii 1.0
element vertex 732
property float x
property float y
property float z
property float nx
property float ny
property float nz
property uchar diffuse_red
property uchar diffuse_green
property uchar diffuse_blue
property uchar class
property uchar detection
end_header
7793.4341 -14544.3135 -140.8804 0.354 -0.129 0.926 101 98 98 0 0
7793.3794 -14542.7188 -141.1397 0.259 -0.087 0.962 127 121 125 0 0
7790.7549 -14542.0371 -141.5165 0.224 -0.150 0.963 129 127 129 0 0
7796.0308 -14538.5518 -141.5316 -0.025 0.324 0.946 136 135 136 0 0
7795.4712 -14537.1387 -141.8137 0.011 0.238 0.971 135 135 137 0 0
7792.5557 -14536.5576 -142.2043 0.012 0.219 0.976 116 115 116 0 0
7790.5049 -14535.6680 -142.5555 0.071 0.176 0.982 101 99 100 0 0
7792.0698 -14533.5029 -142.7399 0.183 -0.115 0.976 78 76 76 0 0
7790.4878 -14532.4463 -143.0697 0.156 -0.005 0.988 91 91 89 0 0
7790.0205 -14530.9971 -143.3480 0.154 0.165 0.974 69 68 68 0 0
7789.9634 -14529.4043 -143.6073 0.303 0.490 0.817 84 80 78 0 0
7783.1675 -14530.1689 -144.1805 0.100 0.793 -0.601 79 75 74 0 0
7772.5771 -14532.2500 -144.9322 -0.059 0.874 -0.482 77 74 74 0 0
7768.0166 -14532.2178 -145.4037 0.033 0.673 -0.739 65 60 61 0 0
7760.4883 -14533.2129 -146.0152 0.033 0.680 -0.732 72 67 67 0 0
7753.6919 -14533.9453 -146.5936 0.032 0.683 -0.730 68 64 65 0 0
7741.8022 -14536.4355 -147.4131 -0.045 0.868 -0.494 58 54 52 0 0
7734.6816 -14537.2617 -148.0098 -0.026 0.850 -0.526 57 52 49 0 0
7728.3496 -14537.8066 -148.5705 -0.017 0.825 -0.564 63 60 60 0 0
7735.7397 -14533.6104 -148.4825 0.282 0.330 -0.901 81 76 75 0 0
7733.2559 -14532.8242 -148.8615 0.487 -0.873 0.034 75 71 68 0 0
7750.2158 -14525.3506 -148.3165 0.419 -0.900 -0.125 73 69 67 0 0
7773.3950 -14515.7627 -147.4718 0.399 -0.881 -0.254 65 60 60 0 0
7779.2153 -14510.5352 -147.7083 0.655 -0.745 0.127 61 55 55 0 0
7766.2832 -14510.0938 -149.1008 0.024 1.000 0.020 59 52 50 0 0
7758.6060 -14511.0801 -149.7289 -0.059 0.997 0.054 57 52 49 0 0
7752.9351 -14511.3779 -150.2613 -0.051 0.997 0.057 59 52 49 0 0
7749.2441 -14510.9990 -150.6990 0.040 0.931 0.364 59 52 49 0 0
7746.7856 -14510.2002 -151.0776 0.014 0.912 0.410 60 53 51 0 0
7741.0044 -14510.5186 -151.6180 -0.038 0.847 0.530 59 54 51 0 0
7728.7554 -14513.0088 -152.4743 -0.046 0.952 0.303 56 52 50 0 0
7723.0210 -14513.2949 -153.0151 0.003 0.997 0.074 58 54 55 0 0
7721.7617 -14512.0732 -153.3382 0.847 -0.413 -0.335 47 44 48 0 0
7726.1279 -14508.9668 -153.3860 0.552 -0.779 0.296 56 51 51 0 0
7725.3696 -14507.5781 -153.6844 0.449 -0.603 0.660 61 55 52 0 0
7727.2163 -14505.3203 -153.8548 0.367 -0.422 0.829 64 59 55 0 0
7733.2905 -14501.6572 -153.8166 0.255 -0.501 0.827 67 61 57 0 0
7736.2197 -14499.0469 -153.9323 -0.027 0.324 0.946 72 62 60 0 0
7730.9297 -14499.1689 -154.4539 -0.047 0.389 0.920 65 56 51 0 0
7726.7622 -14498.9121 -154.9207 -0.041 0.370 0.928 68 58 53 0 0
7723.9106 -14498.2168 -155.3230 -0.041 0.370 0.928 71 61 57 0 0
7721.4302 -14497.3955 -155.7073 -0.009 0.331 0.944 75 62 56 0 0
7720.6348 -14496.0156 -156.0081 -0.015 0.379 0.925 74 61 52 0 0
7717.6187 -14495.3662 -156.4198 0.002 0.308 0.951 75 62 54 0 0
7720.5186 -14489.4893 -157.0582 0.052 0.307 0.950 81 68 59 0 0
7719.0400 -14488.3320 -157.3936 0.004 0.488 0.873 80 66 57 0 0
7711.5508 -14489.1328 -158.0320 -0.046 0.409 0.911 82 69 61 0 0
7709.7686 -14488.0684 -158.3836 -0.083 0.607 0.790 81 69 63 0 0
7706.4238 -14487.5088 -158.8145 -0.078 0.547 0.834 74 63 57 0 0
7701.0596 -14487.6006 -159.3484 -0.061 0.489 0.870 76 64 57 0 0
7698.1567 -14486.8906 -159.7583 -0.051 0.450 0.892 81 68 59 0 0
7683.2344 -14490.0596 -160.7799 -0.024 0.344 0.939 82 70 65 0 0
7681.6240 -14488.9189 -161.1260 -0.040 0.396 0.918 76 64 59 0 0
7690.1519 -14484.5137 -160.9548 0.006 0.305 0.952 81 67 61 0 0
7687.2778 -14483.7822 -161.3651 0.056 0.055 0.997 80 68 62 0 0
7691.3091 -14480.8330 -161.4221 0.021 0.326 0.945 72 62 57 0 0
7689.0303 -14479.9092 -161.8022 0.011 0.442 0.897 78 66 59 0 0
7685.7354 -14479.3066 -162.2348 -0.008 0.462 0.887 76 63 56 0 0
7678.6782 -14479.9014 -162.8619 -0.030 0.330 0.944 79 65 59 0 0
7677.9956 -14478.4590 -163.1612 -0.097 0.510 0.854 83 69 63 0 0
7676.4116 -14477.3018 -163.5072 0.010 0.307 0.952 83 69 62 0 0
7672.4502 -14476.8975 -163.9766 0.070 0.062 0.996 81 66 57 0 0
7670.5776 -14475.8281 -164.3383 0.031 0.205 0.978 73 62 55 0 0
7665.3218 -14475.8252 -164.8761 0.024 0.113 0.993 82 69 62 0 0
7662.0854 -14475.1797 -165.3097 0.031 0.293 0.955 82 69 60 0 0
7679.5732 -14468.0078 -164.6626 0.154 -0.126 0.980 86 71 60 0 0
7659.4116 -14472.6846 -165.9800 -0.092 0.461 0.882 88 72 63 0 0
7653.3101 -14472.9297 -166.5649 -0.088 0.470 0.878 87 69 62 0 0
7652.3760 -14471.5498 -166.8799 -0.069 0.409 0.910 82 64 55 0 0
7652.7109 -14469.7734 -167.1283 0.032 0.130 0.991 86 70 57 0 0
7652.0049 -14468.3223 -167.4314 0.046 0.190 0.981 88 72 62 0 0
7652.4751 -14466.5049 -167.6725 -0.009 0.514 0.858 90 74 66 0 0
7648.2588 -14466.1436 -168.1610 -0.027 0.489 0.872 90 73 63 0 0
7655.0522 -14462.3643 -168.0677 -0.052 0.557 0.829 88 71 61 0 0
7650.7349 -14462.0322 -168.5620 -0.038 0.401 0.915 81 67 61 0 0
7641.8853 -14458.0693 -170.0974 -0.044 0.384 0.922 87 71 61 0 0
7638.7905 -14457.3428 -170.5293 -0.066 0.491 0.869 92 74 64 0 0
7633.7061 -14457.2227 -171.0683 -0.085 0.568 0.818 89 71 63 0 0
7614.1245 -14461.5234 -172.3863 -0.042 0.415 0.909 88 71 62 0 0
7259.7896 -14207.1982 -249.0789 0.010 0.992 0.125 53 49 48 0 0
7243.5889 -14206.6670 -250.8198 0.030 0.901 0.433 44 42 43 0 0
7234.7988 -14206.5205 -251.7419 0.022 0.971 0.237 45 44 43 0 0
7237.6523 -14204.1426 -251.8285 0.177 0.816 0.550 45 44 42 0 0
7226.7349 -14200.7139 -253.4903 0.032 0.426 0.904 39 38 39 0 0
7223.9136 -14199.4092 -253.9863 0.052 0.313 0.948 37 35 36 0 0
7222.2246 -14197.8887 -254.4008 0.025 0.365 0.931 43 40 41 0 0
7222.3945 -14196.0186 -254.6810 0.024 0.544 0.839 45 41 44 0 0
7216.1929 -14169.6025 -259.5178 0.729 0.474 -0.494 43 39 39 0 0
7219.8701 -14159.7812 -260.7044 0.298 -0.954 0.040 48 46 47 0 0
7236.9897 -14154.9424 -259.7238 0.306 -0.951 0.036 49 46 48 0 0
7209.9302 -14157.8594 -262.0265 0.105 0.944 -0.314 45 41 44 0 0
7970.9902 -14569.3555 -120.2342 0.000 0.100 0.995 142 139 142 0 0
7965.6694 -14569.9072 -120.6934 0.031 0.010 0.999 143 141 142 0 0
7960.4023 -14570.4326 -121.1513 0.019 0.009 1.000 146 144 145 0 0
7961.8506 -14568.3359 -121.3359 0.015 0.038 0.999 144 144 144 0 0
7963.1626 -14566.2930 -121.5257 -0.015 0.157 0.987 143 143 144 0 0
7958.3628 -14566.6270 -121.9660 -0.054 0.298 0.953 149 148 149 0 0
7951.0610 -14567.9258 -122.5102 -0.064 0.352 0.934 151 151 150 0 0
7951.2036 -14566.3330 -122.7488 -0.045 0.276 0.960 158 157 156 0 0
7947.4717 -14566.2393 -123.1474 -0.020 0.232 0.973 160 159 160 0 0
7943.8306 -14566.1055 -123.5429 -0.007 0.243 0.970 160 158 160 0 0
7941.6152 -14565.4189 -123.8798 -0.019 0.293 0.956 157 156 157 0 0
7930.9629 -14566.4277 -124.8144 0.106 0.167 0.980 153 154 155 0 0
7935.7271 -14563.0537 -124.8612 -0.061 0.414 0.908 157 157 158 0 0
7932.5923 -14562.7100 -125.2381 -0.059 0.469 0.881 152 152 152 0 0
7930.9937 -14561.7754 -125.5510 -0.061 0.431 0.900 150 150 152 0 0
7929.1211 -14560.9434 -125.8757 -0.007 0.322 0.947 138 138 140 0 0
7927.5005 -14560.0146 -126.1901 -0.004 0.315 0.949 137 136 136 0 0
7924.2285 -14559.7119 -126.5745 0.071 0.166 0.984 147 145 146 0 0
7923.9209 -14558.2793 -126.8339 0.032 0.271 0.962 154 154 155 0 0
7926.4219 -14555.7812 -126.9740 -0.063 0.469 0.881 148 148 150 0 0
7919.6958 -14556.7812 -127.5064 -0.075 0.424 0.903 133 132 133 0 0
7917.4492 -14556.0791 -127.8489 -0.051 0.358 0.932 141 137 135 0 0
7914.8550 -14555.5068 -128.2067 -0.034 0.313 0.949 149 148 148 0 0
7910.7441 -14555.5029 -128.6299 -0.076 0.386 0.919 150 150 151 0 0
7904.6206 -14556.2520 -129.1404 -0.081 0.385 0.919 152 153 153 0 0
7903.2959 -14555.1904 -129.4452 -0.075 0.381 0.922 154 153 152 0 0
7900.1660 -14554.8047 -129.8282 -0.080 0.392 0.916 156 155 156 0 0
7896.5576 -14554.5957 -130.2325 -0.080 0.392 0.916 155 152 152 0 0
7887.4312 -14556.4453 -130.8766 -0.090 0.389 0.917 151 150 149 0 0
7878.7178 -14558.1299 -131.5045 -0.094 0.371 0.924 153 152 151 0 0
7863.8726 -14551.0273 -134.1598 0.134 -0.200 0.971 138 136 137 0 0
7868.4536 -14547.7637 -134.2078 0.143 -0.178 0.974 130 126 126 0 0
7873.5757 -14544.3066 -134.2309 0.025 0.169 0.985 125 123 120 0 0
7862.7173 -14546.7158 -134.9642 -0.039 0.698 0.715 120 117 114 0 0
7858.9585 -14546.5127 -135.3828 0.051 0.543 0.838 130 126 122 0 0
7857.6499 -14545.4102 -135.6926 0.004 0.111 0.994 135 132 130 0 0
7842.5308 -14539.8135 -138.1367 -0.106 0.487 0.867 95 88 88 0 0
7838.6577 -14539.6221 -138.5652 -0.084 0.381 0.921 94 88 87 0 0
7834.8169 -14539.4160 -138.9929 -0.085 0.385 0.919 86 79 76 0 0
7825.6973 -14541.1025 -139.6623 -0.108 0.421 0.901 93 87 84 0 0
7822.5537 -14540.6338 -140.0599 -0.128 0.485 0.865 119 114 114 0 0
7817.9434 -14540.6875 -140.5253 -0.128 0.488 0.863 112 104 101 0 0
7811.2417 -14541.4834 -141.0876 -0.117 0.495 0.861 106 97 94 0 0
7807.9834 -14541.0430 -141.4927 -0.027 0.257 0.966 129 122 122 0 0
7805.5708 -14540.2969 -141.8593 -0.063 0.327 0.943 127 123 121 0 0
7801.7490 -14540.0498 -142.2914 -0.035 0.268 0.963 140 137 137 0 0
7803.6055 -14537.7812 -142.4613 -0.019 0.199 0.980 150 148 147 0 0
7805.2012 -14535.6074 -142.6428 -0.030 0.359 0.933 142 138 138 0 0
7804.5229 -14534.2422 -142.9297 0.008 0.221 0.975 152 150 151 0 0
7799.6323 -14534.3643 -143.4129 0.041 0.049 0.998 145 144 146 0 0
7798.8745 -14533.0234 -143.7041 0.059 0.011 0.998 135 136 134 0 0
7800.9189 -14530.6943 -143.8643 0.097 -0.038 0.995 114 112 112 0 0
7799.2422 -14529.6758 -144.1984 0.073 0.074 0.995 111 110 109 0 0
7796.2900 -14529.1045 -144.5928 0.033 0.243 0.969 116 115 115 0 0
7787.2275 -14530.6719 -145.2753 0.197 0.549 0.813 130 127 128 0 0
7771.6509 -14534.5078 -146.2667 0.118 0.606 -0.786 129 129 130 0 0
7765.8467 -14534.9111 -146.7992 -0.056 0.883 -0.466 129 128 127 0 0
7759.2251 -14535.5938 -147.3714 -0.051 0.875 -0.482 120 119 120 0 0
7752.8540 -14536.1816 -147.9329 -0.041 0.866 -0.498 116 114 114 0 0
7746.1279 -14536.8848 -148.5125 -0.040 0.864 -0.501 115 113 115 0 0
7739.2944 -14537.6182 -149.0983 -0.040 0.858 -0.511 62 58 60 0 0
7732.7358 -14538.2490 -149.6724 -0.026 0.859 -0.511 58 53 51 0 0
7725.9731 -14538.9424 -150.2573 -0.036 0.885 -0.464 66 63 62 0 0
7731.6753 -14535.3262 -150.2460 0.422 0.322 -0.847 78 76 74 0 0
7732.2437 -14533.4854 -150.4802 0.459 -0.867 0.194 92 86 85 0 0
7747.9170 -14526.4521 -149.9874 0.419 -0.908 0.013 94 90 90 0 0
7771.7964 -14516.6191 -149.0958 0.392 -0.888 -0.239 70 65 65 0 0
7779.2949 -14512.4297 -148.9910 0.468 -0.804 0.366 60 54 54 0 0
7778.4644 -14511.0996 -149.2879 0.671 -0.740 -0.048 56 50 50 0 0
7778.9258 -14504.4854 -150.2920 0.055 0.464 -0.884 57 51 51 0 0
7771.4990 -14505.3916 -150.9115 0.060 0.440 -0.896 56 51 50 0 0
7762.2749 -14506.8975 -151.6203 0.069 0.431 -0.900 55 51 48 0 0
7749.6636 -14509.5371 -152.4971 0.051 0.567 -0.822 55 50 47 0 0
7736.3882 -14512.3867 -153.4088 -0.032 0.996 -0.083 57 52 49 0 0
7730.8760 -14512.6055 -153.9405 -0.032 0.996 -0.083 65 60 58 0 0
7722.7290 -14513.7041 -154.6033 0.017 0.999 -0.049 73 69 68 0 0
7725.1802 -14511.2373 -154.7435 0.489 -0.681 0.546 57 52 56 0 0
7727.7310 -14508.7402 -154.8783 0.480 -0.769 0.423 69 63 63 0 0
7728.4009 -14506.8760 -155.1059 0.449 -0.603 0.660 60 56 53 0 0
7735.5029 -14502.8652 -155.0135 0.305 -0.405 0.862 62 57 55 0 0
7741.4395 -14499.2510 -154.9777 0.195 -0.386 0.901 62 56 52 0 0
7746.3584 -14495.9844 -154.9916 -0.044 0.367 0.929 66 58 53 0 0
7743.4902 -14495.3076 -155.3939 -0.044 0.367 0.929 66 58 55 0 0
7739.0771 -14495.1406 -155.8741 -0.039 0.357 0.933 62 53 52 0 0
7735.9858 -14494.5322 -156.2888 -0.048 0.380 0.924 62 54 52 0 0
7732.9067 -14493.9150 -156.7033 -0.048 0.380 0.924 63 56 49 0 0
7732.0796 -14492.5527 -157.0049 -0.012 0.328 0.945 65 56 48 0 0
7729.8472 -14491.6523 -157.3775 0.019 0.247 0.969 68 57 53 0 0
7728.6577 -14487.1357 -158.2180 0.051 0.309 0.950 76 63 53 0 0
7727.9072 -14485.7451 -158.5162 0.015 0.427 0.904 75 61 53 0 0
7721.8413 -14486.0879 -159.0854 -0.043 0.492 0.869 79 63 54 0 0
7717.7329 -14485.7861 -159.5556 -0.073 0.568 0.820 79 66 59 0 0
7715.4575 -14484.8838 -159.9329 -0.049 0.456 0.889 73 63 58 0 0
7715.4741 -14483.2373 -160.1931 -0.050 0.395 0.917 77 65 58 0 0
7713.2051 -14482.3301 -160.5706 -0.049 0.376 0.925 75 63 52 0 0
7708.4727 -14482.2168 -161.0751 -0.048 0.380 0.924 79 69 64 0 0
7705.2954 -14481.5967 -161.5004 -0.045 0.376 0.926 76 65 59 0 0
7702.8242 -14480.7451 -161.8897 -0.040 0.372 0.927 80 65 57 0 0
7701.5024 -14479.5225 -162.2200 -0.013 0.326 0.945 80 66 58 0 0
7698.4136 -14478.8652 -162.6420 -0.007 0.301 0.954 83 71 63 0 0
7695.1675 -14478.2549 -163.0727 -0.015 0.413 0.910 84 71 64 0 0
7691.8975 -14477.6484 -163.5052 -0.017 0.422 0.906 83 70 63 0 0
7690.8599 -14476.3271 -163.8220 -0.037 0.364 0.931 81 69 62 0 0
7690.4277 -14474.8115 -164.1074 -0.089 0.504 0.859 81 67 60 0 0
7684.8809 -14474.9219 -164.6601 0.024 0.278 0.960 85 71 63 0 0
7683.7441 -14473.6270 -164.9829 0.092 0.020 0.996 88 72 64 0 0
7681.3794 -14472.7197 -165.3702 0.028 0.233 0.972 77 66 62 0 0
7678.5391 -14471.9600 -165.7830 0.035 0.146 0.989 80 69 63 0 0
7673.7178 -14471.8223 -166.3005 0.154 -0.137 0.978 86 72 63 0 0
7687.2363 -14465.9053 -165.8515 0.175 -0.092 0.980 87 73 64 0 0
7670.8994 -14469.3867 -166.9774 -0.091 0.700 0.708 90 73 65 0 0
7665.6958 -14469.3574 -167.5171 -0.091 0.790 0.606 90 73 65 0 0
7660.5073 -14469.3174 -168.0568 -0.076 0.836 0.543 81 65 57 0 0
7679.6782 -14461.6592 -167.3036 0.015 0.783 0.622 80 66 57 0 0
7658.7031 -14466.5459 -168.6829 0.011 0.573 0.820 85 69 61 0 0
7661.4751 -14464.0146 -168.8003 0.008 0.590 0.808 90 74 64 0 0
7658.0107 -14463.4258 -169.2501 -0.055 0.559 0.827 84 70 59 0 0
7664.8052 -14459.6514 -169.1517 -0.029 0.522 0.853 89 72 60 0 0
7663.2905 -14458.4570 -169.4973 -0.080 0.634 0.769 85 69 59 0 0
7659.2686 -14454.7061 -170.5072 0.063 0.130 0.990 87 70 61 0 0
7654.9434 -14454.3701 -171.0052 -0.042 0.380 0.924 88 70 61 0 0
7651.4092 -14453.7871 -171.4613 -0.065 0.472 0.879 93 75 65 0 0
7645.1597 -14454.0303 -172.0649 -0.067 0.629 0.775 93 76 68 0 0
7642.1904 -14453.2656 -172.4918 0.648 -0.677 0.348 89 72 63 0 0
7265.3555 -14206.4404 -250.4729 0.008 0.911 0.412 63 60 60 0 0
7258.1416 -14206.0127 -251.2826 0.008 0.911 0.412 42 40 43 0 0
7246.4248 -14206.4414 -252.4188 -0.049 0.756 0.653 49 48 48 0 0
7240.5586 -14205.7373 -253.1339 -0.034 0.796 0.604 51 49 47 0 0
7244.2983 -14203.1924 -253.1540 0.077 0.446 0.892 56 52 52 0 0
7233.2480 -14203.4678 -254.2461 0.081 0.166 0.983 57 52 51 0 0
7231.4756 -14201.9707 -254.6664 0.113 0.008 0.994 47 44 42 0 0
7236.4937 -14199.1865 -254.5932 0.035 0.401 0.915 44 40 39 0 0
7234.1147 -14197.8047 -255.0575 0.040 0.336 0.941 44 39 39 0 0
7245.5098 -14184.7061 -255.9686 0.434 -0.612 0.661 50 48 48 0 0
7243.8701 -14183.1855 -256.3789 0.431 -0.807 -0.404 49 46 47 0 0
7247.2129 -14180.7451 -256.4232 0.344 -0.631 -0.695 44 42 43 0 0
7225.2153 -14179.2959 -258.9150 0.567 -0.634 -0.525 44 41 41 0 0
7232.4224 -14174.3232 -258.9647 0.619 -0.658 -0.428 47 42 41 0 0
7217.8223 -14173.2988 -260.6284 0.174 0.961 0.213 48 42 43 0 0
7215.4224 -14171.8945 -261.0984 0.344 0.924 0.164 50 45 44 0 0
7215.0801 -14170.1201 -261.4158 0.682 0.351 -0.642 45 41 40 0 0
7221.8359 -14161.5820 -262.0787 0.569 -0.814 -0.119 50 48 50 0 0
7994.3730 -14560.4980 -120.7178 0.058 0.180 0.982 142 143 144 0 0
7995.9673 -14558.3613 -120.8924 0.116 0.097 0.989 141 141 143 0 0
7992.5874 -14558.1689 -121.2723 0.026 0.280 0.960 144 143 145 0 0
7981.3853 -14561.0215 -121.9769 -0.024 0.284 0.959 146 146 148 0 0
7980.2871 -14559.9287 -122.2640 -0.012 0.244 0.970 148 148 150 0 0
7959.8740 -14566.3389 -123.3553 -0.083 0.480 0.873 151 150 151 0 0
7956.0186 -14566.3018 -123.7596 -0.093 0.479 0.873 154 152 155 0 0
7957.8779 -14564.0479 -123.9256 -0.032 0.312 0.950 156 156 157 0 0
7957.1812 -14562.7842 -124.1984 -0.036 0.290 0.956 159 158 159 0 0
7958.2397 -14560.8428 -124.3974 -0.038 0.276 0.961 160 159 160 0 0
7955.2471 -14560.4639 -124.7669 -0.021 0.241 0.970 159 159 159 0 0
7954.0659 -14559.3848 -125.0604 -0.021 0.241 0.970 160 160 160 0 0
7948.7983 -14559.8750 -125.5268 -0.041 0.329 0.943 159 159 159 0 0
7947.8691 -14558.6953 -125.8104 -0.076 0.396 0.915 161 161 161 0 0
7944.5537 -14558.4287 -126.1955 -0.072 0.440 0.895 158 158 158 0 0
7942.3657 -14557.7266 -126.5331 -0.061 0.401 0.914 155 153 155 0 0
7938.6309 -14557.6133 -126.9371 -0.006 0.316 0.949 153 150 151 0 0
7935.3872 -14557.3086 -127.3208 -0.011 0.343 0.939 156 156 156 0 0
7932.3257 -14555.3857 -127.9427 0.093 0.191 0.977 153 153 154 0 0
7933.7930 -14553.2852 -128.1248 -0.030 0.597 0.802 151 152 153 0 0
7930.4238 -14553.0176 -128.5154 -0.025 0.603 0.798 142 143 143 0 0
7928.9375 -14552.0352 -128.8251 0.156 0.190 0.969 127 124 124 0 0
7926.7954 -14551.2988 -129.1636 0.150 0.198 0.969 139 134 134 0 0
7926.5444 -14549.8467 -129.4201 0.174 0.272 0.946 146 146 146 0 0
7920.3413 -14550.6357 -129.9359 -0.065 0.518 0.853 143 142 140 0 0
7920.3027 -14549.1006 -130.1838 -0.047 0.525 0.850 141 142 140 0 0
7917.0918 -14548.7568 -130.5704 -0.085 0.572 0.816 142 140 136 0 0
7912.7129 -14548.8457 -131.0087 -0.083 0.552 0.830 145 143 142 0 0
7904.4395 -14550.3877 -131.6189 -0.078 0.426 0.902 149 148 149 0 0
7898.2930 -14551.1250 -132.1370 -0.055 0.340 0.939 154 154 154 0 0
7881.6694 -14549.4795 -134.1164 -0.054 0.242 0.969 152 151 152 0 0
7876.6084 -14549.7822 -134.5915 -0.062 0.283 0.957 155 152 153 0 0
7878.4927 -14547.5137 -134.7570 -0.110 0.478 0.871 153 152 153 0 0
7884.3232 -14543.7939 -134.7454 -0.137 0.721 0.679 153 153 154 0 0
7880.1831 -14543.7510 -135.1802 -0.127 0.709 0.693 152 151 153 0 0
7877.3574 -14543.2197 -135.5566 -0.128 0.746 0.654 145 144 146 0 0
7871.0786 -14543.9531 -136.0891 -0.057 0.795 0.604 140 138 139 0 0
7874.5625 -14541.1035 -136.1818 -0.006 0.419 0.908 131 130 129 0 0
7877.1807 -14538.5752 -136.3129 -0.018 0.196 0.980 129 128 128 0 0
7862.1294 -14534.6123 -138.4981 -0.131 0.686 0.716 97 95 93 0 0
7852.9067 -14536.3682 -139.1722 -0.124 0.592 0.797 108 106 105 0 0
7848.8921 -14536.2354 -139.6083 -0.101 0.521 0.848 119 117 119 0 0
7847.0811 -14535.3037 -139.9434 -0.098 0.485 0.869 116 114 116 0 0
7843.0825 -14535.1572 -140.3800 -0.101 0.403 0.909 108 105 105 0 0
7837.7217 -14535.4951 -140.8803 -0.125 0.483 0.867 124 120 121 0 0
7831.5972 -14536.1016 -141.4171 -0.124 0.484 0.866 137 136 136 0 0
7829.8096 -14535.1475 -141.7532 -0.073 0.336 0.939 143 141 142 0 0
7825.1694 -14535.2119 -142.2226 -0.035 0.253 0.967 149 149 148 0 0
7822.8735 -14534.4346 -142.5833 -0.063 0.313 0.948 150 149 146 0 0
7821.0181 -14533.4990 -142.9239 -0.049 0.278 0.959 155 156 155 0 0
7819.6616 -14532.3828 -143.2413 -0.019 0.199 0.980 158 157 158 0 0
7818.4668 -14531.2090 -143.5513 -0.030 0.354 0.935 157 155 155 0 0
7815.9258 -14530.5107 -143.9249 0.022 0.209 0.978 156 155 156 0 0
7813.7524 -14529.6797 -144.2816 0.037 0.066 0.997 142 139 140 0 0
7811.9395 -14528.7188 -144.6216 0.068 -0.006 0.998 151 150 149 0 0
7813.1123 -14526.7041 -144.8204 0.063 0.028 0.998 148 148 149 0 0
7807.8643 -14526.9502 -145.3237 0.014 0.156 0.988 145 143 143 0 0
7802.5845 -14527.2021 -145.8294 -0.026 0.334 0.942 154 152 153 0 0
7788.6899 -14530.4678 -146.7466 0.069 0.608 0.791 150 148 149 0 0
7765.5815 -14536.9414 -148.1062 0.101 0.645 -0.758 159 157 158 0 0
7756.3755 -14536.8984 -149.0645 -0.051 0.869 -0.493 160 158 159 0 0
7749.6597 -14537.6055 -149.6463 -0.053 0.908 -0.417 152 151 152 0 0
7743.0942 -14538.2520 -150.2222 -0.053 0.908 -0.417 136 137 136 0 0
7737.0078 -14538.7246 -150.7761 -0.040 0.858 -0.511 61 60 62 0 0
7730.5742 -14539.3115 -151.3478 -0.026 0.859 -0.511 54 51 49 0 0
7724.1406 -14539.8896 -151.9208 -0.036 0.885 -0.464 66 61 59 0 0
7728.9512 -14536.5801 -151.9495 0.403 0.367 -0.838 79 75 73 0 0
7732.6943 -14533.6436 -152.0292 0.448 -0.805 0.388 132 127 127 0 0
7743.1528 -14528.4014 -151.7811 0.395 -0.872 0.289 141 139 139 0 0
7763.2324 -14519.8691 -151.0616 0.392 -0.888 -0.239 115 113 114 0 0
7779.7339 -14512.5869 -150.5132 0.490 -0.778 0.392 102 99 102 0 0
7777.7090 -14511.6650 -150.8689 0.658 -0.609 -0.442 87 85 86 0 0
7785.5615 -14507.3672 -150.7402 0.309 -0.134 -0.942 75 72 73 0 0
7784.9199 -14505.9756 -151.0276 0.301 -0.108 -0.947 68 64 63 0 0
7779.4990 -14506.2109 -151.5505 0.079 0.372 -0.925 65 62 60 0 0
7770.5410 -14507.6416 -152.2489 0.068 0.419 -0.905 62 58 55 0 0
7764.0713 -14508.2188 -152.8259 0.067 0.424 -0.903 58 54 51 0 0
7755.2974 -14509.5684 -153.5183 0.067 0.436 -0.897 57 54 49 0 0
7749.1001 -14510.0371 -154.0843 0.069 0.430 -0.900 61 57 54 0 0
7733.6831 -14513.6094 -155.1100 0.035 0.604 -0.797 60 56 55 0 0
7729.2461 -14513.4658 -155.5915 0.022 0.654 -0.757 64 59 57 0 0
7721.8530 -14514.3105 -156.2212 0.067 0.825 -0.561 65 60 56 0 0
7727.4248 -14510.7959 -156.2039 0.489 -0.681 0.546 57 54 52 0 0
7758.2812 -14492.3252 -155.9495 0.001 0.255 0.967 58 52 50 0 0
7755.4556 -14491.6426 -156.3501 0.002 0.246 0.969 58 52 51 0 0
7755.7202 -14489.9316 -156.5945 -0.016 0.248 0.969 59 53 51 0 0
7770.3569 -14483.4658 -156.1091 0.279 -0.571 0.772 58 51 49 0 0
7746.9229 -14489.5938 -157.5573 0.377 -0.028 -0.926 58 53 48 0 0
7745.3701 -14488.4795 -157.8949 0.400 -0.157 -0.903 57 52 48 0 0
7749.7686 -14485.4043 -157.9289 0.465 -0.612 -0.640 63 55 53 0 0
7752.8882 -14482.7549 -158.0274 0.479 -0.603 -0.639 61 52 49 0 0
7730.8447 -14488.3633 -159.4146 0.233 0.053 0.971 61 54 48 0 0
7731.3628 -14486.5586 -159.6478 0.206 0.073 0.976 65 56 50 0 0
7732.1167 -14484.6777 -159.8687 0.156 0.279 0.948 66 56 50 0 0
7724.1938 -14485.6289 -160.5363 0.066 0.335 0.940 68 56 50 0 0
7726.8140 -14483.1387 -160.6613 -0.093 0.616 0.782 68 58 54 0 0
7723.0449 -14482.7275 -161.1161 -0.083 0.540 0.837 66 55 53 0 0
7720.0195 -14482.0713 -161.5330 -0.027 0.356 0.934 69 59 55 0 0
7717.5215 -14481.2412 -161.9231 -0.027 0.356 0.934 67 57 54 0 0
7715.0503 -14480.4004 -162.3122 -0.028 0.352 0.936 68 58 55 0 0
7712.9224 -14479.4453 -162.6838 -0.021 0.337 0.941 69 58 50 0 0
7710.6782 -14478.5254 -163.0618 0.008 0.270 0.963 70 58 51 0 0
7709.5781 -14477.2363 -163.3804 0.006 0.298 0.954 72 60 54 0 0
7705.5435 -14476.8877 -163.8528 -0.019 0.554 0.832 81 68 61 0 0
7701.6890 -14476.4766 -164.3164 0.096 0.405 0.909 84 70 60 0 0
7699.7656 -14475.4443 -164.6793 0.111 0.424 0.899 84 71 62 0 0
7699.4014 -14473.9121 -164.9603 -0.016 0.418 0.908 82 69 62 0 0
7696.6655 -14473.1357 -165.3665 -0.016 0.418 0.908 78 64 56 0 0
7694.6616 -14472.1230 -165.7344 0.038 0.259 0.965 78 65 57 0 0
7691.4531 -14471.4912 -166.1664 0.059 0.197 0.979 85 70 61 0 0
7692.3818 -14469.5449 -166.3796 0.025 0.193 0.981 84 71 63 0 0
7691.9370 -14468.0352 -166.6655 0.025 0.193 0.981 90 75 67 0 0
7690.9644 -14466.6914 -166.9795 0.065 0.101 0.993 87 73 64 0 0
7696.8081 -14463.2002 -166.9303 0.156 0.030 0.987 88 73 63 0 0
7709.4902 -14457.5654 -166.5148 -0.029 0.903 0.429 91 75 65 0 0
7698.0127 -14459.5283 -167.3892 -0.090 0.814 0.574 91 74 64 0 0
7694.8418 -14458.8760 -167.8206 -0.062 0.775 0.629 87 71 61 0 0
7690.1367 -14458.6992 -168.3349 -0.027 0.702 0.711 87 72 63 0 0
7681.1992 -14459.8379 -169.0776 0.052 0.751 0.658 86 70 62 0 0
7666.6553 -14462.7139 -170.1239 0.021 0.516 0.857 89 74 64 0 0
7664.7739 -14461.6357 -170.4896 -0.037 0.411 0.911 84 70 58 0 0
7674.2349 -14457.0361 -170.2425 -0.013 0.514 0.858 86 71 61 0 0
7671.7183 -14456.1582 -170.6421 -0.083 0.680 0.729 84 69 60 0 0
7671.7954 -14454.4756 -170.9015 -0.032 0.431 0.902 92 77 65 0 0
7670.0640 -14453.3516 -171.2590 -0.003 0.305 0.952 93 76 65 0 0
7670.2173 -14451.6455 -171.5143 0.028 0.215 0.976 89 73 66 0 0
7668.9336 -14450.3818 -171.8477 0.029 0.205 0.978 89 71 63 0 0
7664.0630 -14450.2168 -172.3773 -0.034 0.446 0.895 95 77 66 0 0
7645.9663 -14454.0957 -173.6314 0.815 -0.561 -0.146 96 79 70 0 0
7647.4556 -14451.9688 -173.8153 0.624 -0.696 0.357 94 77 67 0 0
7333.3188 -14243.6006 -239.3876 -0.056 0.249 0.967 81 69 64 0 0
7250.4409 -14202.3379 -254.5090 0.008 0.343 0.939 57 53 53 0 0
7245.9883 -14201.3613 -255.1244 0.040 0.061 0.997 49 42 44 0 0
7249.1851 -14198.9268 -255.1807 0.047 0.045 0.998 48 45 44 0 0
7251.0386 -14196.7520 -255.3348 0.032 0.211 0.977 47 43 42 0 0
7250.2266 -14195.0820 -255.6841 0.025 0.265 0.964 48 42 42 0 0
7238.9658 -14182.5811 -258.8339 0.341 -0.624 -0.703 46 42 42 0 0
7243.9785 -14179.8340 -258.7524 0.337 -0.619 -0.709 53 47 48 0 0
7228.0938 -14179.0879 -260.5126 0.599 -0.799 0.060 51 47 46 0 0
7213.3354 -14170.7500 -263.3626 0.831 0.101 -0.546 57 52 49 0 0
7207.5830 -14168.0996 -264.3782 -0.031 0.335 0.942 49 48 48 0 0
7212.6567 -14165.3594 -264.2893 0.024 0.068 0.997 52 48 49 0 0
7235.1675 -14157.7148 -263.1773 0.402 -0.835 0.375 48 46 48 0 0
7101.8433 -14124.4697 -282.2385 0.003 0.245 0.969 71 61 56 0 0
7100.3813 -14122.8164 -282.6523 0.003 0.245 0.969 71 62 54 0 0
7081.7646 -14123.8818 -284.4072 0.016 0.577 0.817 73 64 58 0 0
8001.3213 -14558.0723 -121.8603 -0.008 0.361 0.932 140 141 144 0 0
7992.9673 -14559.8301 -122.4492 -0.029 0.309 0.951 145 145 147 0 0
7990.5034 -14559.2783 -122.7928 -0.034 0.326 0.945 152 152 155 0 0
7987.9580 -14558.7559 -123.1403 -0.042 0.327 0.944 156 155 158 0 0
7988.0723 -14557.1953 -123.3762 -0.054 0.350 0.935 159 159 159 0 0
7979.7310 -14558.9209 -123.9688 -0.059 0.351 0.935 158 158 158 0 0
7975.8281 -14558.9150 -124.3753 -0.088 0.440 0.893 159 160 160 0 0
7977.2456 -14556.8428 -124.5569 -0.041 0.372 0.927 161 161 160 0 0
7975.3701 -14556.0469 -124.8782 -0.010 0.302 0.953 161 161 161 0 0
7974.3838 -14554.9062 -125.1619 0.013 0.284 0.959 161 161 161 0 0
7971.8877 -14554.3457 -125.5101 -0.016 0.387 0.922 159 159 160 0 0
7967.2529 -14554.6064 -125.9503 -0.027 0.244 0.969 159 159 159 0 0
7961.1821 -14555.4141 -126.4528 -0.032 0.297 0.954 157 156 157 0 0
7960.4600 -14554.1621 -126.7267 -0.076 0.396 0.915 152 152 153 0 0
7955.2319 -14554.6357 -127.1947 -0.072 0.440 0.895 155 154 156 0 0
7953.4238 -14553.7949 -127.5160 -0.058 0.411 0.910 157 155 157 0 0
7948.5508 -14554.1230 -127.9702 -0.028 0.371 0.928 155 154 155 0 0
7940.3628 -14552.6299 -129.0580 0.058 0.325 0.944 152 151 154 0 0
7937.7998 -14552.0635 -129.4143 0.007 0.505 0.863 153 153 154 0 0
7936.2192 -14551.1211 -129.7281 -0.029 0.607 0.794 156 158 159 0 0
7935.5752 -14549.8232 -130.0011 0.079 0.273 0.959 155 157 157 0 0
7932.3369 -14549.5059 -130.3881 0.150 0.198 0.969 154 154 154 0 0
7932.4785 -14547.9092 -130.6268 0.032 0.410 0.912 154 152 153 0 0
7928.4341 -14547.8887 -131.0502 -0.052 0.519 0.853 142 141 142 0 0
7927.3730 -14546.7432 -131.3424 -0.029 0.481 0.876 138 137 137 0 0
7926.7183 -14545.4434 -131.6168 -0.079 0.579 0.812 127 125 125 0 0
7922.5073 -14545.4766 -132.0491 -0.105 0.594 0.798 107 100 100 0 0
7918.1631 -14545.5547 -132.4881 -0.044 0.387 0.921 128 123 122 0 0
7912.1274 -14546.2588 -133.0033 -0.053 0.349 0.936 129 127 122 0 0
7908.6753 -14545.9932 -133.4041 -0.038 0.277 0.960 134 132 128 0 0
7904.6392 -14545.9414 -133.8317 -0.076 0.362 0.929 134 131 131 0 0
7901.9316 -14545.3916 -134.2004 -0.066 0.344 0.937 141 139 137 0 0
7903.2905 -14543.3291 -134.3867 -0.030 0.276 0.961 146 144 142 0 0
7904.1577 -14541.4512 -134.5948 -0.026 0.271 0.962 135 133 134 0 0
7897.8789 -14542.2178 -135.1255 -0.065 0.359 0.931 139 133 131 0 0
7892.2075 -14542.7520 -135.6298 -0.105 0.459 0.882 141 137 140 0 0
7886.2148 -14543.3994 -136.1498 -0.103 0.469 0.877 148 147 149 0 0
7889.2935 -14540.7002 -136.2584 -0.121 0.609 0.784 151 149 150 0 0
7884.7637 -14540.8008 -136.7130 -0.127 0.648 0.751 147 145 145 0 0
7878.9351 -14541.3740 -137.2278 -0.124 0.643 0.755 149 148 150 0 0
7896.4614 -14533.3848 -136.6752 -0.083 0.504 0.860 154 153 154 0 0
7892.2339 -14533.3721 -137.1164 -0.049 0.296 0.954 148 147 147 0 0
7863.8306 -14535.8750 -139.6702 -0.089 0.379 0.921 103 103 101 0 0
7873.9697 -14530.6279 -139.4498 -0.133 0.713 0.688 107 105 104 0 0
7862.7178 -14533.1260 -140.2223 -0.120 0.631 0.766 129 128 127 0 0
7861.0498 -14532.1523 -140.5502 -0.093 0.568 0.818 134 133 133 0 0
7859.3237 -14531.1973 -140.8811 -0.087 0.493 0.866 135 136 137 0 0
7857.8667 -14530.1445 -141.1997 -0.118 0.476 0.871 123 122 122 0 0
7854.0420 -14529.9404 -141.6296 -0.127 0.480 0.868 130 127 127 0 0
7847.2896 -14530.7812 -142.1976 -0.124 0.481 0.868 144 144 144 0 0
7847.5547 -14529.1025 -142.4365 -0.097 0.380 0.920 144 144 143 0 0
7840.7407 -14529.9541 -143.0093 -0.023 0.172 0.985 143 142 142 0 0
7841.9497 -14527.9365 -143.2041 -0.063 0.280 0.958 146 145 143 0 0
7833.3081 -14529.4287 -143.8651 -0.040 0.185 0.982 152 152 151 0 0
7839.1401 -14525.7646 -143.8408 -0.011 0.145 0.989 158 157 157 0 0
7831.6206 -14526.8467 -144.4503 0.011 0.173 0.985 163 161 161 0 0
7829.7632 -14525.9141 -144.7914 0.060 0.075 0.995 157 157 156 0 0
7831.9727 -14523.5410 -144.9386 0.080 -0.086 0.993 148 147 148 0 0
7825.9077 -14524.0928 -145.4811 0.076 -0.033 0.997 148 146 145 0 0
7824.9995 -14522.8203 -145.7776 0.082 -0.058 0.995 150 149 147 0 0
7816.6138 -14524.1777 -146.4333 -0.005 0.236 0.972 158 157 157 0 0
7812.2256 -14524.1221 -146.8981 -0.022 0.321 0.947 160 158 159 0 0
7792.9814 -14529.2705 -148.0801 0.027 0.574 0.818 164 161 162 0 0
7731.4844 -14542.6016 -152.3531 0.157 0.985 -0.074 151 153 154 0 0
7730.6060 -14541.2607 -152.6574 0.148 0.816 -0.559 92 90 93 0 0
7727.5703 -14540.6660 -153.0672 0.110 0.830 -0.547 61 58 58 0 0
7723.9482 -14540.2715 -153.5062 0.135 0.834 -0.535 63 59 59 0 0
7728.5908 -14537.0176 -153.5404 0.797 0.145 -0.586 94 90 87 0 0
7738.5488 -14531.9385 -153.3122 0.390 -0.696 0.603 148 145 144 0 0
7744.8086 -14528.1436 -153.2643 0.395 -0.872 0.289 152 150 150 0 0
7755.0166 -14523.0010 -153.0203 0.393 -0.874 -0.285 151 149 149 0 0
7775.9927 -14514.1768 -152.2418 0.531 -0.628 0.569 144 141 140 0 0
7770.6123 -14514.4023 -152.7651 0.790 0.048 0.612 127 123 121 0 0
7777.1875 -14510.5352 -152.6959 0.265 0.011 -0.964 110 104 104 0 0
7774.1187 -14509.9668 -153.1050 0.282 0.039 -0.958 116 109 105 0 0
7767.6074 -14510.5674 -153.6862 0.060 0.450 -0.891 108 105 104 0 0
7761.8066 -14510.9189 -154.2331 0.063 0.444 -0.894 90 86 86 0 0
7755.8628 -14511.3125 -154.7882 0.063 0.443 -0.894 76 69 67 0 0
7750.1836 -14511.6094 -155.3311 0.064 0.442 -0.895 73 65 61 0 0
7743.4902 -14512.2432 -155.9259 0.064 0.448 -0.892 66 62 57 0 0
7732.4741 -14514.3291 -156.7393 0.049 0.554 -0.831 62 58 54 0 0
7722.4678 -14516.0615 -157.5039 0.041 0.580 -0.813 62 58 54 0 0
7771.6699 -14488.1758 -156.8194 0.014 0.155 0.988 63 57 55 0 0
7771.6997 -14486.5518 -157.0740 0.014 0.155 0.988 60 54 52 0 0
7769.3403 -14485.7217 -157.4510 -0.013 0.223 0.975 58 53 50 0 0
7766.2920 -14485.1162 -157.8638 0.365 -0.878 0.309 59 54 50 0 0
7742.0767 -14491.5029 -159.3658 0.358 -0.025 -0.933 54 49 46 0 0
7740.5425 -14490.3799 -159.7036 0.400 -0.157 -0.903 50 47 46 0 0
7743.2529 -14487.8564 -159.8225 0.427 -0.873 0.235 58 53 52 0 0
7743.5151 -14486.1426 -160.0675 0.392 -0.849 0.354 55 49 47 0 0
7739.0649 -14485.9746 -160.5565 0.229 -0.221 0.948 59 52 49 0 0
7742.0093 -14483.3799 -160.6625 0.229 -0.221 0.948 58 52 48 0 0
7742.5654 -14481.5703 -160.8921 0.136 0.004 0.991 57 50 47 0 0
7744.1621 -14479.4219 -161.0673 0.145 0.026 0.989 62 54 52 0 0
7736.4185 -14480.3184 -161.7296 -0.008 0.361 0.933 63 56 53 0 0
7734.9658 -14479.1602 -162.0643 0.007 0.278 0.960 63 54 52 0 0
7733.8491 -14477.8926 -162.3818 -0.000 0.308 0.951 65 57 55 0 0
7728.5439 -14477.9795 -162.9191 -0.106 0.666 0.738 62 55 55 0 0
7722.5298 -14478.2900 -163.4946 -0.107 0.666 0.738 57 50 49 0 0
7721.6235 -14476.9463 -163.8022 -0.015 0.439 0.898 60 52 48 0 0
7717.0581 -14476.7793 -164.3030 -0.003 0.461 0.887 63 55 51 0 0
7715.6885 -14475.5801 -164.6357 -0.000 0.478 0.878 63 54 51 0 0
7711.9512 -14475.1396 -165.0939 0.019 0.465 0.885 70 58 54 0 0
7709.6265 -14474.2432 -165.4779 0.091 0.350 0.932 76 63 56 0 0
7705.6934 -14473.8584 -165.9477 0.118 0.389 0.914 76 65 58 0 0
7709.0522 -14471.1406 -166.0301 -0.004 0.397 0.918 71 60 55 0 0
7706.2510 -14470.3906 -166.4402 -0.015 0.443 0.897 71 60 54 0 0
7704.3047 -14469.3662 -166.8052 0.022 0.306 0.952 73 61 52 0 0
7701.9468 -14468.4697 -167.1924 0.005 0.307 0.952 79 65 57 0 0
7703.0024 -14466.4902 -167.3972 0.008 0.242 0.970 78 65 57 0 0
7702.1094 -14465.1279 -167.7063 0.051 0.160 0.986 83 68 59 0 0
7700.3740 -14464.0303 -168.0607 0.072 0.099 0.992 83 69 62 0 0
7706.2231 -14460.5420 -168.0069 0.190 -0.018 0.982 81 66 58 0 0
7712.9136 -14456.7959 -167.9065 -0.029 0.903 0.429 80 66 55 0 0
7707.8901 -14456.7354 -168.4380 -0.035 0.900 0.435 84 69 58 0 0
7701.5884 -14457.0703 -169.0397 -0.056 0.784 0.618 87 69 60 0 0
7693.4976 -14457.9570 -169.7395 -0.023 0.759 0.650 83 67 59 0 0
7685.9199 -14458.6748 -170.4130 0.024 0.727 0.686 83 68 61 0 0
7678.3008 -14459.3965 -171.0900 -0.028 0.339 0.940 87 71 61 0 0
7683.7251 -14456.0537 -171.0571 0.148 -0.100 0.984 85 69 59 0 0
7685.0181 -14454.0000 -171.2489 0.034 0.142 0.989 89 73 63 0 0
7684.0669 -14452.6426 -171.5631 0.009 0.243 0.970 90 73 62 0 0
7684.2134 -14450.9463 -171.8173 0.012 0.248 0.969 95 77 62 0 0
7683.1768 -14449.6152 -172.1364 0.013 0.230 0.973 96 78 66 0 0
7681.7578 -14448.4004 -172.4766 0.005 0.276 0.961 91 76 64 0 0
7679.3511 -14447.4883 -172.8715 0.008 0.315 0.949 90 74 65 0 0
7675.4907 -14447.0205 -173.3470 -0.036 0.440 0.897 93 77 68 0 0
7347.4902 -14240.9512 -240.1455 -0.023 0.226 0.974 86 75 68 0 0
7340.7583 -14238.7881 -241.1884 -0.066 0.567 0.821 89 76 68 0 0
7261.6899 -14198.6875 -255.7707 0.026 0.112 0.993 56 49 49 0 0
7253.6514 -14198.3965 -256.6521 -0.032 0.394 0.918 52 48 49 0 0
7254.9414 -14196.3301 -256.8463 -0.035 0.460 0.887 50 45 46 0 0
7261.8569 -14193.2021 -256.6242 0.054 0.221 0.974 49 44 45 0 0
7239.5518 -14184.6172 -260.3049 -0.001 0.519 0.855 47 43 43 0 0
7235.1421 -14183.6035 -260.9240 -0.001 0.519 0.855 48 43 45 0 0
7250.6782 -14177.0986 -260.3425 0.228 0.802 -0.553 58 52 49 0 0
7245.8086 -14176.1689 -260.9961 0.196 0.976 0.095 55 49 48 0 0
7233.9888 -14163.7129 -264.2020 -0.045 0.319 0.947 52 50 49 0 0
7246.0713 -14157.9229 -263.8659 -0.002 0.857 0.515 53 49 48 0 0
7127.3701 -14120.7139 -282.1070 -0.022 0.399 0.917 70 60 58 0 0
7123.8765 -14119.3984 -282.6789 -0.010 0.368 0.930 67 59 55 0 0
8001.9849 -14553.5811 -123.9789 -0.048 0.407 0.912 155 154 155 0 0
7999.1987 -14553.1582 -124.3370 -0.027 0.293 0.956 155 154 155 0 0
7994.3867 -14553.5195 -124.7823 -0.044 0.402 0.915 157 157 157 0 0
7990.4082 -14553.5527 -125.1927 -0.073 0.477 0.876 159 161 160 0 0
7987.2847 -14553.2490 -125.5671 -0.047 0.398 0.916 160 161 162 0 0
7985.4707 -14552.4355 -125.8857 -0.018 0.337 0.941 157 157 155 0 0
7983.4116 -14551.7148 -126.2151 -0.002 0.300 0.954 158 157 157 0 0
7980.1562 -14551.4531 -126.5966 -0.007 0.260 0.966 154 155 155 0 0
7979.0234 -14550.3711 -126.8867 -0.005 0.252 0.968 156 156 157 0 0
7969.5229 -14552.5049 -127.5405 -0.053 0.319 0.946 155 153 156 0 0
7966.0024 -14552.3320 -127.9356 0.006 0.129 0.992 153 152 154 0 0
7943.9092 -14551.5801 -130.3625 -0.028 0.788 0.614 151 151 153 0 0
7940.7651 -14551.2363 -130.7455 -0.036 0.813 0.581 152 152 154 0 0
7941.9780 -14549.2373 -130.9360 -0.033 0.582 0.812 155 156 158 0 0
7940.2231 -14548.3633 -131.2580 0.144 0.125 0.982 157 157 158 0 0
7939.6538 -14547.0400 -131.5275 0.167 0.069 0.983 158 158 157 0 0
7938.7329 -14545.8486 -131.8127 0.028 0.395 0.918 157 157 157 0 0
7936.6646 -14545.0879 -132.1494 -0.019 0.463 0.886 142 143 144 0 0
7936.1772 -14543.7314 -132.4155 -0.034 0.468 0.883 114 111 112 0 0
7935.7520 -14542.3516 -132.6790 -0.096 0.587 0.804 130 127 129 0 0
7931.3193 -14542.4727 -133.1227 -0.105 0.594 0.798 133 129 133 0 0
7929.2612 -14541.7012 -133.4601 -0.038 0.387 0.921 109 104 106 0 0
7926.5190 -14541.1826 -133.8288 0.019 0.236 0.972 97 90 88 0 0
7923.9053 -14540.6133 -134.1922 -0.029 0.344 0.939 106 101 98 0 0
7919.6099 -14537.5713 -135.1235 -0.012 0.324 0.946 125 120 118 0 0
7916.1401 -14537.3105 -135.5273 -0.037 0.344 0.938 117 115 117 0 0
7911.2075 -14537.5869 -135.9987 -0.066 0.363 0.929 129 123 122 0 0
7906.0859 -14537.9268 -136.4797 -0.088 0.375 0.923 144 143 144 0 0
7899.8755 -14538.6631 -137.0116 -0.096 0.408 0.908 144 145 145 0 0
7895.8384 -14538.5918 -137.4446 -0.107 0.459 0.882 144 143 142 0 0
7895.3491 -14537.2119 -137.7146 -0.088 0.476 0.875 145 144 143 0 0
7912.2451 -14529.4512 -137.1812 -0.027 0.369 0.929 148 148 148 0 0
7908.6182 -14529.2305 -137.5950 -0.086 0.574 0.814 150 149 150 0 0
7901.2461 -14530.3760 -138.1833 -0.076 0.468 0.881 147 145 146 0 0
7899.7388 -14529.3711 -138.5001 -0.075 0.480 0.874 147 146 147 0 0
7895.3989 -14529.3975 -138.9492 -0.057 0.440 0.896 145 145 147 0 0
7890.0928 -14529.7715 -139.4442 -0.109 0.497 0.861 134 133 137 0 0
7882.7578 -14530.8760 -140.0351 -0.090 0.431 0.898 113 112 114 0 0
7878.4775 -14530.8643 -140.4841 -0.095 0.448 0.889 119 118 117 0 0
7875.1172 -14530.5137 -140.8907 -0.118 0.696 0.708 118 115 116 0 0
7870.6992 -14530.5430 -141.3476 -0.132 0.665 0.735 139 137 139 0 0
7871.4302 -14528.7080 -141.5624 -0.080 0.615 0.785 139 137 136 0 0
7869.8550 -14527.7051 -141.8860 0.015 0.262 0.965 151 149 149 0 0
7868.7534 -14526.5303 -142.1875 0.015 0.262 0.965 133 131 132 0 0
7865.8496 -14526.0020 -142.5746 -0.043 0.417 0.908 130 125 124 0 0
7863.7080 -14525.1973 -142.9260 -0.050 0.454 0.890 142 140 136 0 0
7862.6953 -14523.9863 -143.2239 -0.057 0.406 0.912 148 148 147 0 0
7855.8276 -14523.2891 -144.0519 -0.048 0.296 0.954 145 142 141 0 0
7849.0239 -14524.1348 -144.6283 -0.044 0.308 0.951 147 144 145 0 0
7847.1929 -14523.2051 -144.9671 -0.056 0.407 0.912 153 151 152 0 0
7843.3296 -14522.9951 -145.4040 -0.055 0.443 0.895 161 157 157 0 0
7839.5742 -14522.7422 -145.8364 0.023 0.242 0.970 153 152 151 0 0
7832.4360 -14523.6816 -146.4329 0.037 0.265 0.963 158 158 157 0 0
7832.8022 -14521.9629 -146.6674 -0.016 0.301 0.954 158 158 157 0 0
7831.7622 -14520.7402 -146.9700 0.001 0.257 0.966 162 162 162 0 0
7801.6680 -14526.5312 -149.1945 -0.005 0.663 0.749 165 163 164 0 0
7726.4277 -14544.6748 -154.1748 0.936 0.249 0.249 158 159 160 0 0
7729.1392 -14542.0840 -154.3027 0.539 0.828 0.154 120 119 122 0 0
7726.2300 -14541.4453 -154.7080 0.222 0.905 -0.363 78 73 74 0 0
7723.8506 -14540.6191 -155.0875 0.241 0.905 -0.350 71 67 65 0 0
7727.4375 -14537.7305 -155.1712 0.836 0.296 -0.462 107 102 100 0 0
7737.3188 -14532.6748 -154.9412 0.397 -0.719 0.571 151 149 146 0 0
7746.5679 -14527.8496 -154.7407 0.391 -0.867 0.309 148 145 144 0 0
7758.4419 -14522.1338 -154.4074 0.386 -0.918 -0.086 151 146 145 0 0
7777.6299 -14513.9229 -153.7059 0.503 -0.511 0.697 142 140 138 0 0
7776.5591 -14512.6738 -154.0160 0.578 0.127 0.806 136 133 132 0 0
7783.3613 -14508.7314 -153.9310 0.396 0.502 0.769 135 132 133 0 0
7779.3975 -14508.4727 -154.3862 0.263 0.948 -0.179 149 146 144 0 0
7772.5024 -14509.2070 -154.9897 0.051 0.517 -0.855 141 140 140 0 0
7763.8745 -14510.5244 -155.6821 0.055 0.503 -0.863 120 117 115 0 0
7756.6807 -14511.3438 -156.3034 0.064 0.472 -0.879 104 98 97 0 0
7730.1162 -14515.4365 -158.4288 0.018 0.658 -0.753 68 60 56 0 0
7724.8379 -14515.5742 -158.9582 0.022 0.649 -0.760 61 56 53 0 0
7779.9688 -14485.7178 -157.9369 0.294 0.692 -0.659 66 60 57 0 0
7775.8379 -14485.4814 -158.4058 0.770 0.194 -0.608 68 62 58 0 0
7767.1694 -14486.7471 -159.1105 0.422 -0.902 0.088 64 59 55 0 0
7741.9272 -14488.6006 -161.4530 0.421 -0.842 0.337 60 56 54 0 0
7745.7412 -14485.7178 -161.5121 0.392 -0.849 0.354 56 52 50 0 0
7756.9502 -14480.4121 -161.1831 0.392 -0.849 0.354 58 52 50 0 0
7759.2993 -14478.0225 -161.3168 0.311 -0.698 0.645 57 51 50 0 0
7750.5415 -14479.2686 -162.0339 0.194 -0.000 0.981 58 53 51 0 0
7752.5674 -14476.9854 -162.1847 0.228 0.691 0.686 60 54 52 0 0
7752.2578 -14475.4648 -162.4583 0.109 0.867 0.486 64 57 55 0 0
7744.3745 -14476.4072 -163.1321 0.973 0.230 0.028 64 56 53 0 0
7744.1934 -14474.8408 -163.3996 0.893 0.295 0.341 67 58 56 0 0
7742.1978 -14473.8623 -163.7632 0.010 0.999 -0.042 65 58 56 0 0
7737.3032 -14473.8203 -164.2812 -0.011 0.927 0.375 57 53 52 0 0
7731.9419 -14473.9229 -164.8250 0.045 0.911 0.410 59 54 51 0 0
7729.8545 -14472.9639 -165.1951 -0.087 0.976 0.201 61 54 52 0 0
7724.4619 -14473.0664 -165.7421 -0.079 0.973 0.216 64 54 52 0 0
7718.2036 -14473.4414 -166.3363 -0.079 0.973 0.216 65 55 52 0 0
7712.4067 -14473.6611 -166.9070 0.165 0.543 0.823 65 57 54 0 0
7709.8594 -14472.8340 -167.3042 0.149 0.538 0.830 68 59 56 0 0
7719.8516 -14468.0010 -167.0274 0.120 0.180 0.976 68 60 56 0 0
7718.4580 -14466.8086 -167.3621 0.124 0.022 0.992 70 61 58 0 0
7719.1270 -14464.9590 -167.5857 0.126 0.022 0.992 67 56 50 0 0
7712.6914 -14465.3672 -168.1933 -0.011 0.333 0.943 66 55 51 0 0
7713.1494 -14463.5820 -168.4286 0.026 0.240 0.970 71 60 55 0 0
7714.4077 -14461.5449 -168.6203 0.039 0.262 0.964 71 58 52 0 0
7712.4219 -14460.5342 -168.9882 0.152 0.099 0.983 73 60 54 0 0
7712.8130 -14458.7725 -169.2269 0.152 0.099 0.983 67 56 51 0 0
7716.2490 -14456.0537 -169.2994 -0.019 0.890 0.456 65 53 46 0 0
7711.9873 -14455.7559 -169.7917 -0.027 0.941 0.336 70 57 51 0 0
7708.2227 -14455.2988 -170.2576 0.016 0.808 0.590 73 60 54 0 0
7709.5864 -14453.2324 -170.4430 -0.082 0.675 0.733 78 64 57 0 0
7699.8887 -14454.6221 -171.2354 -0.032 0.653 0.757 82 67 61 0 0
7697.9224 -14453.5908 -171.6044 0.031 0.228 0.973 85 68 60 0 0
7694.4238 -14453.0342 -172.0581 0.093 0.035 0.995 85 68 58 0 0
7695.9365 -14450.9189 -172.2359 0.024 0.203 0.979 88 71 64 0 0
7694.8511 -14449.6094 -172.5569 0.021 0.239 0.971 87 69 62 0 0
7693.9048 -14448.2568 -172.8704 0.021 0.239 0.971 90 73 62 0 0
7693.2344 -14446.8184 -173.1687 0.020 0.234 0.972 94 76 63 0 0
7690.8062 -14445.9209 -173.5647 -0.008 0.299 0.954 91 74 60 0 0
7689.4370 -14444.6953 -173.9022 -0.026 0.382 0.924 89 72 64 0 0
7666.0527 -14450.2256 -175.4672 -0.106 0.670 0.735 86 72 63 0 0
7371.3550 -14234.5010 -240.4779 0.161 0.114 0.980 92 81 75 0 0
7269.1514 -14197.5811 -257.0113 -0.056 0.388 0.920 72 63 58 0 0
7268.0874 -14192.3408 -257.9539 0.029 0.213 0.977 54 48 47 0 0
7267.4619 -14190.6455 -258.2883 0.030 0.229 0.973 61 54 51 0 0
7266.0742 -14189.0928 -258.6796 0.010 0.391 0.920 60 53 49 0 0
7254.5239 -14183.9824 -260.6968 -0.015 0.361 0.932 48 44 42 0 0
7249.7275 -14183.0518 -261.3456 -0.010 0.330 0.944 47 43 45 0 0
7245.4102 -14161.9922 -265.1381 0.016 0.167 0.986 57 51 50 0 0
7258.2002 -14152.4658 -265.3135 0.312 -0.361 0.879 52 47 45 0 0
7245.5615 -14152.8740 -266.5690 -0.010 0.396 0.918 56 50 48 0 0
7240.7720 -14151.8945 -267.2246 -0.049 0.541 0.840 60 54 51 0 0
7231.7305 -14151.6523 -268.2076 -0.067 0.566 0.822 58 53 50 0 0
7227.4258 -14150.5762 -268.8279 -0.064 0.548 0.834 55 51 51 0 0
7221.4443 -14149.7861 -269.5780 -0.050 0.550 0.834 50 46 46 0 0
7214.1265 -14149.2207 -270.4321 -0.046 0.548 0.835 48 45 44 0 0
7214.8247 -14143.6045 -271.2502 0.021 0.961 0.277 59 49 48 0 0
7142.8198 -14118.5645 -282.7445 -0.046 0.454 0.890 60 51 49 0 0
7133.4224 -14118.1973 -283.7843 -0.040 0.517 0.855 56 50 47 0 0
8008.7480 -14551.2373 -125.1151 0.202 0.421 0.884 139 139 138 0 0
8007.9019 -14550.0635 -125.3901 0.232 0.130 0.964 141 140 141 0 0
8003.7163 -14550.1865 -125.8100 0.023 0.544 0.839 147 145 146 0 0
7985.5518 -14555.7334 -126.8380 0.344 0.498 -0.796 153 153 153 0 0
7996.8623 -14549.8320 -126.5861 -0.049 0.443 0.895 154 153 154 0 0
7994.9229 -14549.0723 -126.9101 -0.018 0.337 0.941 152 152 152 0 0
7993.2778 -14548.1973 -127.2215 -0.027 0.281 0.959 141 142 141 0 0
7991.8130 -14547.2510 -127.5254 -0.022 0.258 0.966 135 132 128 0 0
7989.8237 -14546.5059 -127.8525 -0.039 0.291 0.956 145 143 142 0 0
7987.9922 -14545.6973 -128.1729 -0.039 0.295 0.955 150 148 148 0 0
7981.0669 -14546.8438 -128.7184 -0.008 0.205 0.979 150 149 151 0 0
7976.9404 -14546.9082 -129.1414 0.056 0.030 0.998 145 145 147 0 0
7974.2969 -14546.4004 -129.4995 -0.079 0.439 0.895 146 145 146 0 0
7968.5425 -14547.0791 -129.9961 -0.142 0.623 0.769 150 147 149 0 0
7960.8643 -14548.4854 -130.5794 -0.141 0.589 0.796 144 144 145 0 0
7946.0303 -14546.4639 -132.4577 0.163 0.062 0.985 147 146 148 0 0
7945.3032 -14545.2031 -132.7339 0.256 -0.116 0.960 150 149 150 0 0
7945.4419 -14543.6152 -132.9711 0.060 0.386 0.921 152 152 153 0 0
7945.0605 -14542.2236 -133.2318 -0.045 0.540 0.841 151 152 153 0 0
7943.2119 -14541.3838 -133.5591 -0.038 0.487 0.873 153 153 155 0 0
7942.8081 -14539.9990 -133.8210 -0.100 0.645 0.758 155 154 157 0 0
7938.2324 -14540.1797 -134.2729 -0.100 0.645 0.758 154 153 155 0 0
7936.5239 -14539.2803 -134.5948 -0.005 0.363 0.932 148 146 150 0 0
7934.8857 -14538.3545 -134.9137 0.030 0.254 0.967 148 147 150 0 0
7933.4043 -14537.3672 -135.2257 0.022 0.270 0.963 146 146 148 0 0
7931.3247 -14536.6016 -135.5655 0.018 0.351 0.936 128 125 128 0 0
7927.7710 -14536.3828 -135.9734 -0.016 0.392 0.920 120 116 115 0 0
7928.5029 -14534.5684 -136.1842 0.032 0.377 0.926 124 119 117 0 0
7927.2241 -14533.5000 -136.4879 -0.037 0.344 0.938 111 107 107 0 0
7923.3223 -14533.4023 -136.9132 -0.067 0.309 0.949 120 115 114 0 0
7918.5723 -14533.6123 -137.3785 -0.088 0.323 0.942 116 110 108 0 0
7907.7769 -14536.0488 -138.1259 -0.104 0.367 0.924 139 135 135 0 0
7903.3584 -14536.1230 -138.5780 -0.102 0.363 0.926 142 141 140 0 0
7923.3394 -14527.2197 -137.8916 -0.004 0.311 0.950 149 147 146 0 0
7921.5283 -14526.3418 -138.2211 -0.020 0.366 0.930 149 149 150 0 0
7917.2891 -14526.3516 -138.6646 -0.076 0.547 0.834 152 151 151 0 0
7911.2690 -14527.0078 -139.1926 -0.074 0.486 0.871 148 147 147 0 0
7909.1445 -14526.2354 -139.5383 -0.071 0.492 0.868 150 149 150 0 0
7904.4839 -14526.3848 -140.0040 -0.046 0.380 0.924 149 149 148 0 0
7902.3184 -14525.6201 -140.3526 -0.106 0.444 0.890 148 147 147 0 0
7895.9570 -14526.3789 -140.9002 -0.107 0.650 0.753 137 135 137 0 0
7890.7295 -14526.7188 -141.3952 -0.077 0.556 0.828 134 133 133 0 0
7883.5015 -14527.7783 -141.9863 -0.100 0.567 0.818 121 117 116 0 0
7879.4106 -14527.6934 -142.4292 -0.133 0.660 0.740 133 131 131 0 0
7879.1704 -14526.2139 -142.6890 -0.098 0.523 0.846 142 141 142 0 0
7879.0322 -14524.6982 -142.9439 0.000 0.269 0.963 147 145 144 0 0
7875.8223 -14524.2881 -143.3460 0.023 0.323 0.946 147 146 147 0 0
7874.4868 -14523.2002 -143.6587 -0.009 0.386 0.922 152 151 153 0 0
7870.7417 -14521.4062 -144.3364 -0.043 0.446 0.894 161 159 161 0 0
7867.4028 -14521.0312 -144.7465 -0.025 0.342 0.939 160 160 162 0 0
7863.3037 -14520.9229 -145.1940 -0.071 0.507 0.859 159 159 159 0 0
7860.0396 -14520.5127 -145.6018 -0.075 0.468 0.880 163 160 161 0 0
7860.0020 -14518.9521 -145.8533 -0.047 0.376 0.925 160 158 159 0 0
7857.0923 -14518.4102 -146.2446 -0.031 0.320 0.947 164 161 161 0 0
7854.8726 -14517.6221 -146.6028 -0.045 0.361 0.932 160 158 157 0 0
7850.4971 -14517.5938 -147.0667 -0.056 0.389 0.920 163 163 161 0 0
7847.4526 -14517.0908 -147.4662 -0.056 0.389 0.920 165 164 162 0 0
7845.5747 -14516.1719 -147.8089 -0.049 0.382 0.923 162 162 161 0 0
7783.4546 -14531.6133 -151.8835 -0.080 0.266 0.961 154 152 154 0 0
7729.8291 -14542.1582 -155.8423 0.439 0.682 0.585 128 126 126 0 0
7729.0854 -14540.7695 -156.1407 0.172 0.965 0.200 97 94 94 0 0
7726.2534 -14540.1025 -156.5438 0.158 0.977 0.144 80 76 74 0 0
7804.5259 -14505.0000 -153.8907 0.687 0.403 0.604 138 136 134 0 0
7800.6108 -14503.1387 -154.5969 0.691 0.418 -0.590 148 145 146 0 0
7783.1235 -14507.5068 -155.7405 0.546 0.548 -0.634 154 152 153 0 0
7767.9229 -14509.4551 -157.0278 0.080 0.432 -0.899 131 131 127 0 0
7757.5166 -14511.3691 -157.8170 0.050 0.526 -0.849 128 126 123 0 0
7742.2661 -14488.7969 -162.9974 0.155 -0.294 0.943 61 56 55 0 0
7752.1421 -14483.9199 -162.7338 0.070 0.066 0.995 70 65 64 0 0
7754.6025 -14481.4893 -162.8608 0.212 -0.460 0.862 73 68 64 0 0
7764.7881 -14476.5293 -162.5777 0.203 -0.431 0.879 55 51 50 0 0
7752.4751 -14478.9424 -163.4879 0.024 0.211 0.977 55 50 49 0 0
7760.0537 -14474.8457 -163.3417 -0.015 0.795 0.607 59 53 50 0 0
7758.9131 -14473.6016 -163.6589 0.023 0.842 0.539 60 54 51 0 0
7753.6675 -14473.6904 -164.1955 0.017 0.889 0.458 63 55 52 0 0
7753.9448 -14471.9805 -164.4375 -0.027 0.994 0.108 67 58 55 0 0
7743.5874 -14473.7188 -165.2495 -0.031 0.997 0.075 63 57 54 0 0
7737.6938 -14474.0000 -165.8237 -0.033 0.982 0.184 72 63 62 0 0
7732.2695 -14474.1240 -166.3737 0.037 0.944 0.327 72 67 64 0 0
